# .PCD v0.7 - Point Cloud Data file format
VERSION 0.7
FIELDS x y z normal_x normal_y normal_z curvature
SIZE 4 4 4 4 4 4 4
TYPE F F F F F F F
COUNT 1 1 1 1 1 1 1
WIDTH 432
HEIGHT 1
VIEWPOINT 0 0 0 1 0 0 0
POINTS 432
DATA ascii
-72.66246 -33.126858 -23.142193 -0.27596244 -0.65911108 -0.69958365 5.6051939e-45
-63.581509 -33.433174 -23.709988 -0.068429254 -0.64322984 -0.7626093 5.6051939e-45
-53.801502 -33.406677 -23.595568 -0.0026297197 -0.65727133 -0.75364947 5.6051939e-45
-43.841408 -33.508297 -23.730127 0 -0.64712429 -0.76238447 5.6051939e-45
-34.200062 -33.756351 -23.444576 0 -0.69333726 -0.72061324 5.6051939e-45
-24.720989 -33.489178 -23.68552 0 -0.65107548 -0.759013 5.6051939e-45
-14.858547 -33.532146 -23.51704 0 -0.67378646 -0.73892611 5.6051939e-45
-4.7336302 -33.575485 -23.578413 0 -0.66845912 -0.74374896 5.6051939e-45
5.0218139 -33.603016 -23.693506 0 -0.65691197 -0.75396723 5.6051939e-45
14.887113 -33.341179 -23.675934 0 -0.64322174 -0.76567996 5.6051939e-45
24.825914 -33.654293 -23.527573 0 -0.67765611 -0.73537886 5.6051939e-45
34.231369 -33.371853 -23.833822 0 -0.62740642 -0.77869207 5.6051939e-45
44.07143 -33.491806 -23.604826 0 -0.66086572 -0.7505042 5.6051939e-45
53.743053 -33.629143 -23.539658 0.0058334181 -0.6755724 -0.73727059 5.6051939e-45
63.418037 -33.803905 -23.1784 0.18235259 -0.7087341 -0.68150091 5.6051939e-45
72.341179 -33.190964 -23.182001 0.47986123 -0.5965035 -0.6433636 5.6051939e-45
-72.981979 -24.154673 -23.825661 -0.47804466 -0.042669099 -0.87729853 5.6051939e-45
-63.261948 -24.486547 -25 -0.11170553 -0.031872999 -0.99323004 5.6051939e-45
-53.458431 -24.337475 -25 -0.0039935657 -0.030582566 -0.9995243 5.6051939e-45
-43.483131 -24.414799 -25 0 -0.033770941 -0.99942964 5.6051939e-45
-34.073288 -24.350536 -25 0 -0.033320423 -0.99944466 5.6051939e-45
-24.319483 -24.101706 -25 0 -0.035515085 -0.99936914 5.6051939e-45
-14.653686 -24.706423 -25 0 -0.034130644 -0.99941742 5.6051939e-45
-4.9246955 -24.410809 -25 0 -0.036119025 -0.99934751 5.6051939e-45
4.8541126 -24.251871 -25 0 -0.030413741 -0.99953741 5.6051939e-45
14.789478 -24.209352 -25 0 -0.0222288 -0.99975288 5.6051939e-45
24.68004 -24.353949 -25 0 -0.032652762 -0.99946678 5.6051939e-45
34.142986 -24.015844 -25 0 -0.028007034 -0.99960774 5.6051939e-45
43.395912 -24.330671 -25 0 -0.03195782 -0.99948925 5.6051939e-45
53.716244 -24.514675 -25 0.003632074 -0.034696832 -0.99939126 5.6051939e-45
63.792576 -24.265278 -25 0.12998293 -0.029664775 -0.99107236 5.6051939e-45
73.22197 -24.438038 -23.683676 0.52751642 -0.03340679 -0.8488878 5.6051939e-45
-72.986526 -14.299826 -23.83444 -0.48913437 0 -0.87220842 5.6051939e-45
-63.117191 -14.9292 -25 -0.11732572 0 -0.99309349 5.6051939e-45
-53.460812 -14.692056 -25 -0.0038285221 0 -0.99999273 5.6051939e-45
-43.843708 -14.857241 -25 0 0 -1 5.6051939e-45
-33.727318 -14.538513 -25 0 0 -1 5.6051939e-45
-24.287016 -14.427275 -25 0 0 -1 5.6051939e-45
-14.798938 -14.998712 -25 0 0 -1 5.6051939e-45
-5.3275323 -14.826236 -25 0 0 -1 5.6051939e-45
5.0705199 -14.401703 -25 0 0 -1 5.6051939e-45
14.662355 -14.565976 -25 0 0 -1 5.6051939e-45
24.490969 -14.725558 -25 0 0 -1 5.6051939e-45
34.782074 -14.497272 -25 0 0 -1 5.6051939e-45
44.03883 -14.723185 -25 0 0 -1 5.6051939e-45
53.867119 -15.007621 -25 0.0056091184 0 -0.9999842 5.6051939e-45
63.553246 -14.090448 -25 0.1247931 0 -0.99218285 5.6051939e-45
73.172249 -14.618731 -23.729448 0.50823265 0 -0.86121982 5.6051939e-45
-73.154396 -4.596879 -23.71233 -0.51222497 0 -0.85885131 5.6051939e-45
-63.593178 -4.922051 -25 -0.12546444 0 -0.99209809 5.6051939e-45
-53.883232 -4.9927287 -25 -0.0042569637 0 -0.99999094 5.6051939e-45
-44.061714 -4.8825979 -25 0 0 -1 5.6051939e-45
-34.320393 -4.9363699 -25 0 0 -1 5.6051939e-45
-24.298035 -4.8840318 -25 0 0 -1 5.6051939e-45
-14.806115 -4.9139981 -25 0 0 -1 5.6051939e-45
-4.9276018 -5.2403865 -25 0 0 -1 5.6051939e-45
4.7797418 -4.7576475 -25 0 0 -1 5.6051939e-45
14.64538 -5.0222826 -25 0 0 -1 5.6051939e-45
24.458654 -4.6840296 -25 0 0 -1 5.6051939e-45
34.162666 -4.9255466 -25 0 0 -1 5.6051939e-45
44.129372 -4.6802993 -25 0 0 -1 5.6051939e-45
53.602364 -4.602437 -25 0.0039157411 0 -0.99999231 5.6051939e-45
63.809868 -4.6964889 -25 0.12918194 0 -0.9916209 5.6051939e-45
73.371231 -4.7890892 -23.669104 0.52318776 0 -0.8522175 5.6051939e-45
-73.271744 5.1479378 -23.646036 -0.52485365 0 -0.85119247 5.6051939e-45
-63.510178 4.686945 -25 -0.12406667 0 -0.99227393 5.6051939e-45
-54.233883 4.8425064 -25 -0.0054392102 0 -0.99998522 5.6051939e-45
-44.305889 5.3140488 -25 0 0 -1 5.6051939e-45
-34.067623 4.997654 -25 0 0 -1 5.6051939e-45
-24.86809 4.7911248 -25 0 0 -1 5.6051939e-45
-14.916925 4.9856482 -25 0 0 -1 5.6051939e-45
-4.9354014 4.822175 -25 0 0 -1 5.6051939e-45
4.6648045 5.0181971 -25 0 0 -1 5.6051939e-45
14.598079 4.7540774 -25 0 0 -1 5.6051939e-45
24.481287 5.3714271 -25 0 0 -1 5.6051939e-45
34.079807 4.7196555 -25 0 0 -1 5.6051939e-45
43.816921 4.9072351 -25 0 0 -1 5.6051939e-45
53.752533 4.8093119 -25 0.0058808215 0 -0.99998271 5.6051939e-45
63.377438 4.7677751 -25 0.12177844 0 -0.99255729 5.6051939e-45
73.323029 5.2086797 -23.59548 0.5331021 0 -0.84605086 5.6051939e-45
-73.031792 14.691299 -23.950459 -0.46807835 0 -0.88368708 5.6051939e-45
-63.392838 14.686223 -25 -0.12203119 0 -0.99252629 5.6051939e-45
-53.553902 14.751545 -25 -0.0049357531 0 -0.99998784 5.6051939e-45
-43.739658 14.822727 -25 0 0 -1 5.6051939e-45
-34.052944 14.72864 -25 0 0 -1 5.6051939e-45
-24.183359 14.404953 -25 0 0 -1 5.6051939e-45
-14.449463 14.449056 -25 0 0 -1 5.6051939e-45
-4.9600649 14.743357 -25 0 0 -1 5.6051939e-45
4.455369 14.323481 -25 0 0 -1 5.6051939e-45
14.426702 14.687242 -25 0 0 -1 5.6051939e-45
23.918798 14.579628 -25 0 0 -1 5.6051939e-45
33.871479 14.491111 -25 0 0 -1 5.6051939e-45
43.860508 14.628622 -25 0 0 -1 5.6051939e-45
53.814678 14.490179 -25 0.0059944233 0 -0.999982 5.6051939e-45
63.620033 14.983569 -25 0.12592536 0 -0.99203974 5.6051939e-45
73.003517 14.421444 -23.701891 0.51185048 0 -0.85907453 5.6051939e-45
-73.006119 24.332468 -23.789085 -0.50644308 0.033249915 -0.86163217 5.6051939e-45
-63.426296 24.462618 -25 -0.12407555 0.038110361 -0.99154067 5.6051939e-45
-53.5303 24.31287 -25 -0.0049088639 0.025608467 -0.99966002 5.6051939e-45
-44.056107 24.562212 -25 0 0.036867145 -0.99932015 5.6051939e-45
-34.279114 23.982122 -25 0 0.023341693 -0.99972755 5.6051939e-45
-24.099241 24.384693 -25 0 0.024707472 -0.99969471 5.6051939e-45
-14.194057 24.393772 -25 0 0.036404129 -0.99933714 5.6051939e-45
-4.9626026 24.433931 -25 0 0.031874441 -0.99949187 5.6051939e-45
4.3820558 24.331263 -25 0 0.034684151 -0.99939835 5.6051939e-45
14.49318 24.558672 -25 0 0.03392788 -0.99942428 5.6051939e-45
24.596157 24.861425 -25 0 0.044389471 -0.99901438 5.6051939e-45
34.173733 24.296314 -25 0 0.031856086 -0.99949253 5.6051939e-45
43.649612 24.584688 -25 0 0.039265316 -0.99922884 5.6051939e-45
53.685986 24.347755 -25 0.0025254772 0.030741643 -0.99952418 5.6051939e-45
62.584946 24.565056 -25 0.099417195 0.034107778 -0.99446112 5.6051939e-45
73.025604 24.069117 -23.805429 0.48526162 0.032774091 -0.87375456 5.6051939e-45
-72.76107 33.242298 -23.165203 -0.49680543 0.59377897 -0.63293821 5.6051939e-45
-63.418491 33.523933 -23.623796 -0.17790397 0.64630783 -0.7420488 5.6051939e-45
-53.731003 33.4632 -23.712929 -0.0051753935 0.64573795 -0.76354158 5.6051939e-45
-44.147644 33.65926 -23.559282 0 0.67507136 -0.73775238 5.6051939e-45
-34.102772 33.44693 -23.571865 0 0.66311359 -0.74851876 5.6051939e-45
-24.46385 33.395439 -23.685932 0 0.64587182 -0.76344591 5.6051939e-45
-14.611025 33.506023 -23.64069 0 0.65756506 -0.75339776 5.6051939e-45
-4.9028506 33.41927 -23.63208 0 0.65342456 -0.75699168 5.6051939e-45
4.7433281 33.529655 -23.715355 0 0.64983481 -0.76007545 5.6051939e-45
14.526475 33.516621 -23.625296 0 0.65937501 -0.75181419 5.6051939e-45
24.384726 33.585846 -23.530186 0 0.67460865 -0.73817557 5.6051939e-45
34.072903 33.475433 -23.835648 0 0.63331985 -0.77389014 5.6051939e-45
43.930069 33.663521 -23.489567 0 0.68331587 -0.73012292 5.6051939e-45
53.707813 33.699657 -23.53953 0.0021137332 0.67922866 -0.73392367 5.6051939e-45
63.096405 33.598759 -23.548637 0.064972281 0.67129409 -0.73833793 5.6051939e-45
72.478416 32.785187 -23.343475 0.26796687 0.62074453 -0.73679709 5.6051939e-45
-73.230179 -33.532135 -14.544564 -0.54427606 -0.83888066 -0.0065398663 5.6051939e-45
-63.123528 -35 -14.678312 -0.15815838 -0.9874112 -0.0022601373 5.6051939e-45
-53.429859 -35 -14.904656 -0.0044049653 -0.99998271 -0.003903717 5.6051939e-45
-43.802486 -35 -14.839132 0 -0.99999416 -0.0034220435 5.6051939e-45
-34.196026 -35 -14.295456 0 -0.99999958 -0.00095813704 5.6051939e-45
-24.511122 -35 -14.798282 0 -0.99999392 -0.0034786502 5.6051939e-45
-14.748792 -35 -14.985186 0 -0.99999428 -0.0033741852 5.6051939e-45
-4.7245064 -35 -14.430004 0 -0.99999046 -0.004357798 5.6051939e-45
5.4032674 -35 -14.503848 0 -0.99998301 -0.0058249035 5.6051939e-45
14.755242 -35 -14.413419 0 -0.99999756 -0.0021939257 5.6051939e-45
24.63328 -35 -14.487421 0 -0.99999809 -0.0019547117 5.6051939e-45
34.550114 -35 -14.498804 0 -0.99997884 -0.0065077958 5.6051939e-45
43.689243 -35 -14.845471 0 -0.99996489 -0.0083788559 5.6051939e-45
53.870766 -35 -14.553662 0.0083855493 -0.99996275 -0.0020428491 5.6051939e-45
63.532368 -35 -13.879349 0.16832082 -0.98573047 -0.0019018092 5.6051939e-45
72.872665 -33.860336 -14.707471 0.50434726 -0.86349297 -0.0037104397 5.6051939e-45
-75 -24.578045 -14.709371 -0.99829972 -0.058062755 -0.0051395129 5.6051939e-45
75 -24.779924 -14.348967 0.99735749 -0.072444163 -0.0054643662 5.6051939e-45
-75 -14.681338 -15.036621 -0.9999826 0 -0.0059036072 5.6051939e-45
75 -14.845239 -14.570762 0.99999845 0 -0.001760277 5.6051939e-45
-75 -4.5261755 -14.442439 -0.99999225 0 -0.0039362167 5.6051939e-45
75 -4.7773862 -15.106348 0.99999553 0 -0.0029956491 5.6051939e-45
-75 4.8719058 -14.664982 -0.99999684 0 -0.0025146471 5.6051939e-45
75 4.925559 -14.334116 0.99999481 0 -0.0032269179 5.6051939e-45
-75 14.353499 -14.393301 -0.99999839 0 -0.0018359306 5.6051939e-45
75 14.566891 -14.681398 0.99999726 0 -0.0023379279 5.6051939e-45
-75 23.89716 -14.67688 -0.99944025 0.033173352 -0.0043186895 5.6051939e-45
75 24.589586 -14.556085 0.99749351 0.070663057 -0.0036685879 5.6051939e-45
-72.988937 33.612679 -14.647517 -0.53443414 0.84520495 -0.002937617 5.6051939e-45
-63.147041 35 -15.077358 -0.15974317 0.98715127 -0.0037981116 5.6051939e-45
-53.666531 35 -14.543874 -0.0071654618 0.99996948 -0.0031025934 5.6051939e-45
-43.412769 35 -14.674959 0 0.99998313 -0.0058066384 5.6051939e-45
-34.052608 35 -14.657934 0 0.99998981 -0.0045124991 5.6051939e-45
-24.119312 35 -14.95659 0 0.9999755 -0.0070024147 5.6051939e-45
-14.568851 35 -14.5631 0 0.99998385 -0.0056834305 5.6051939e-45
-4.6503849 35 -14.401267 0 1 0 5.6051939e-45
4.682694 35 -14.449977 0 0.99999034 -0.0043942435 5.6051939e-45
14.747842 35 -14.640388 0 0.99999839 -0.0017559188 5.6051939e-45
24.463217 35 -15.10356 0 0.99996197 -0.0087230606 5.6051939e-45
33.969444 35 -14.616303 0 0.9999882 -0.0048580212 5.6051939e-45
44.018188 35 -14.647132 0 0.99998271 -0.0058804951 5.6051939e-45
53.895512 35 -14.253881 0.0073735588 0.99997008 -0.0023344227 5.6051939e-45
63.717571 35 -14.503478 0.17202564 0.98509091 -0.0017707502 5.6051939e-45
73.24913 33.858986 -14.916408 0.50957489 0.86041242 -0.0048790132 5.6051939e-45
-73.045998 -33.620617 -4.5391612 -0.53420931 -0.84535217 0 5.6051939e-45
-63.423355 -35 -5.0872273 -0.16572073 -0.98617274 0 5.6051939e-45
-53.714775 -35 -5.2234788 -0.0061209914 -0.99998128 0 5.6051939e-45
-43.756603 -35 -4.8367095 0 -1 0 5.6051939e-45
-34.652645 -35 -4.705102 0 -1 0 5.6051939e-45
-24.398207 -35 -4.7796011 0 -1 0 5.6051939e-45
-14.622607 -35 -4.8607402 0 -1 0 5.6051939e-45
-5.0908747 -35 -4.9903631 0 -1 0 5.6051939e-45
4.913878 -35 -4.9983106 0 -1 0 5.6051939e-45
14.846381 -35 -4.8720598 0 -1 0 5.6051939e-45
24.195681 -35 -4.7512064 0 -1 0 5.6051939e-45
34.550274 -35 -4.9341998 0 -1 0 5.6051939e-45
44.083199 -35 -4.6734619 0 -1 0 5.6051939e-45
53.61285 -35 -4.9367943 0.0064881179 -0.99997896 0 5.6051939e-45
63.610638 -35 -4.4375615 0.17003193 -0.98543853 0 5.6051939e-45
73.139664 -33.710258 -4.847445 0.52563214 -0.850712 0 5.6051939e-45
-75 -24.506321 -5.1959472 -0.99845248 -0.055612221 0 5.6051939e-45
75 -24.321486 -4.4320722 0.99862659 -0.052392628 0 5.6051939e-45
-75 -15.231287 -5.0925193 -1 0 0 5.6051939e-45
75 -14.445767 -5.3140268 1 0 0 5.6051939e-45
-75 -5.2696953 -4.4743662 -1 0 0 5.6051939e-45
75 -4.8374381 -5.0809627 1 0 0 5.6051939e-45
-75 4.7536182 -5.0318899 -1 0 0 5.6051939e-45
75 4.8909678 -4.9063735 1 0 0 5.6051939e-45
-75 14.431836 -4.658112 -1 0 0 5.6051939e-45
75 14.966043 -4.6973863 1 0 0 5.6051939e-45
-75 24.738853 -4.7983084 -0.99712282 0.075802781 0 5.6051939e-45
75 24.519781 -5.2924743 0.99844766 0.055696964 0 5.6051939e-45
-73.277153 33.830265 -4.9988308 -0.51441818 0.85753947 0 5.6051939e-45
-63.536667 35 -5.1982303 -0.16837578 0.9857229 0 5.6051939e-45
-53.543739 35 -4.8804841 -0.0056568966 0.99998403 0 5.6051939e-45
-43.631069 35 -4.9547052 0 1 0 5.6051939e-45
-33.505775 35 -4.9728518 0 1 0 5.6051939e-45
-24.635693 35 -4.7339349 0 1 0 5.6051939e-45
-14.643714 35 -4.655169 0 1 0 5.6051939e-45
-5.0192122 35 -4.9404521 0 1 0 5.6051939e-45
4.8608909 35 -4.6651287 0 1 0 5.6051939e-45
14.506103 35 -5.0621777 0 1 0 5.6051939e-45
24.007521 35 -4.8731661 0 1 0 5.6051939e-45
33.967205 35 -4.6681447 0 1 0 5.6051939e-45
43.690319 35 -5.2062054 0 1 0 5.6051939e-45
53.565147 35 -4.8452835 0.0063102921 0.99998009 0 5.6051939e-45
63.775471 35 -4.8342161 0.17389536 0.9847641 0 5.6051939e-45
73.180214 33.670498 -4.5720177 0.53037578 0.8477627 0 5.6051939e-45
-73.000122 -33.782074 5.0084758 -0.51477045 -0.85732812 0 5.6051939e-45
-63.275158 -35 5.0310459 -0.16231738 -0.98673862 0 5.6051939e-45
-53.979092 -35 4.7370062 -0.0070629129 -0.99997509 0 5.6051939e-45
-43.98064 -35 4.6246634 0 -1 0 5.6051939e-45
-33.816048 -35 4.5578718 0 -1 0 5.6051939e-45
-24.461987 -35 5.1428943 0 -1 0 5.6051939e-45
-14.590779 -35 4.8080182 0 -1 0 5.6051939e-45
-4.2744284 -35 4.7436571 0 -1 0 5.6051939e-45
5.0612493 -35 5.1330962 0 -1 0 5.6051939e-45
14.609208 -35 5.0567179 0 -1 0 5.6051939e-45
24.582048 -35 4.7226553 0 -1 0 5.6051939e-45
34.186016 -35 4.9101186 0 -1 0 5.6051939e-45
43.961945 -35 4.5429459 0 -1 0 5.6051939e-45
53.863586 -35 5.1007905 0.0068355179 -0.99997663 0 5.6051939e-45
63.929417 -35 4.7858639 0.17747608 -0.98412514 0 5.6051939e-45
73.236992 -33.573853 4.9289474 0.5427407 -0.83990037 0 5.6051939e-45
-75 -24.510246 4.6459522 -0.9980588 -0.062279671 0 5.6051939e-45
75 -24.505013 5.3188124 0.9986912 -0.051146578 0 5.6051939e-45
-75 -14.337396 4.2991986 -1 0 0 5.6051939e-45
75 -15.135042 5.0607052 1 0 0 5.6051939e-45
-75 -4.5486794 4.849761 -1 0 0 5.6051939e-45
75 -5.3566084 4.8569303 1 0 0 5.6051939e-45
-75 5.1685152 4.4969015 -1 0 0 5.6051939e-45
75 4.7944169 5.377182 1 0 0 5.6051939e-45
-75 14.619287 5.1039038 -1 0 0 5.6051939e-45
75 14.638765 4.9565282 1 0 0 5.6051939e-45
-75 24.738646 4.8210306 -0.99873978 0.05018862 0 5.6051939e-45
75 24.6273 4.41289 0.99863297 0.05226998 0 5.6051939e-45
-73.063507 33.672379 4.6553969 -0.52888077 0.84869611 0 5.6051939e-45
-63.559162 35 4.5818143 -0.16888845 0.98563516 0 5.6051939e-45
-53.793087 35 4.7113442 -0.0056204991 0.99998426 0 5.6051939e-45
-43.83585 35 5.0736179 0 1 0 5.6051939e-45
-34.155991 35 4.95332 0 1 0 5.6051939e-45
-24.043167 35 4.8443251 0 1 0 5.6051939e-45
-14.462878 35 4.9698949 0 1 0 5.6051939e-45
-5.0289054 35 4.7613139 0 1 0 5.6051939e-45
4.8408632 35 5.034606 0 1 0 5.6051939e-45
14.633147 35 4.7971191 0 1 0 5.6051939e-45
24.462547 35 5.0182147 0 1 0 5.6051939e-45
34.006996 35 4.8326597 0 1 0 5.6051939e-45
43.883675 35 4.7471652 0 1 0 5.6051939e-45
53.71701 35 4.3969674 0.0058177901 0.99998307 0 5.6051939e-45
63.350624 35 4.8268495 0.16400184 0.98646003 0 5.6051939e-45
73.161369 33.618923 5.0189757 0.53650409 0.84389764 0 5.6051939e-45
-73.29306 -33.45644 14.405917 -0.55650538 -0.83084399 0.00015335729 5.6051939e-45
-63.311069 -35 14.622604 -0.16380839 -0.98645997 0.0079680048 5.6051939e-45
-53.315727 -35 14.54972 -0.0046528624 -0.99998885 0.00082874455 5.6051939e-45
-44.334908 -35 14.314571 0 -0.99998069 0.0062152552 5.6051939e-45
-34.245548 -35 14.478127 0 -0.99999714 0.0023826142 5.6051939e-45
-24.528303 -35 15.216161 0 -0.99998516 0.0054623657 5.6051939e-45
-14.926851 -35 14.92922 0 -0.99998683 0.0051342375 5.6051939e-45
-4.8546753 -35 14.405183 0 -1 0 5.6051939e-45
4.8896847 -35 14.76926 0 -0.99999923 0.0012333029 5.6051939e-45
14.921948 -35 14.668572 0 -0.99999553 0.0029911164 5.6051939e-45
24.798866 -35 14.533088 0 -0.99999821 0.0018826923 5.6051939e-45
34.441612 -35 14.694363 0 -0.99999422 0.0033969607 5.6051939e-45
43.942268 -35 14.495646 0 -0.9999817 0.0060544126 5.6051939e-45
53.746033 -35 14.433484 0.0070986561 -0.99997467 0.00050934043 5.6051939e-45
63.577755 -35 14.558333 0.16781656 -0.98580366 0.0053520957 5.6051939e-45
73.410362 -33.592411 14.523974 0.54329741 -0.83953321 0.003469045 5.6051939e-45
-75 -24.135876 14.479095 -0.99898124 -0.045006432 0.0033101153 5.6051939e-45
75 -24.282942 14.650861 0.99826634 -0.058812641 0.0023287835 5.6051939e-45
-75 -14.339266 13.893456 -1 0 0 5.6051939e-45
75 -14.547519 14.617115 1 0 0 5.6051939e-45
-75 -4.7375154 14.638072 -0.99999398 0 0.0034717973 5.6051939e-45
75 -4.4480476 14.686304 0.99998468 0 0.0055306251 5.6051939e-45
-75 5.1046767 14.154086 -0.99999964 0 0.00083853171 5.6051939e-45
75 5.3123131 15.046279 0.99998093 0 0.0061700013 5.6051939e-45
-75 14.265124 14.630887 -0.99994975 0 0.010026503 5.6051939e-45
75 14.833044 14.563143 0.99999547 0 0.0030144965 5.6051939e-45
-75 24.373175 14.137151 -0.99823201 0.059404831 0.0019625835 5.6051939e-45
75 24.225582 14.599144 0.99922407 0.038654875 0.0075540766 5.6051939e-45
-73.737915 33.331448 14.699934 -0.57819164 0.81589073 0.0041036392 5.6051939e-45
-63.976997 35 14.370563 -0.17724901 0.9841547 0.004732803 5.6051939e-45
-53.812366 35 14.579723 -0.0067090956 0.99997544 0.0020310157 5.6051939e-45
-43.936794 35 15.057946 0 0.99996173 0.0087541416 5.6051939e-45
-34.551853 35 14.907947 0 0.99998206 0.0059952233 5.6051939e-45
-24.539982 35 14.691036 0 0.9999854 0.0054007848 5.6051939e-45
-14.539862 35 14.53286 0 0.99999583 0.0028861852 5.6051939e-45
-4.7766776 35 14.623206 0 0.99998218 0.0059601348 5.6051939e-45
4.9607038 35 14.716572 0 0.99998564 0.0053511574 5.6051939e-45
14.562635 35 14.417418 0 0.99999976 0.00063151325 5.6051939e-45
24.382189 35 15.061287 0 0.99998367 0.0057117632 5.6051939e-45
34.007473 35 14.929358 0 0.99997717 0.0067556561 5.6051939e-45
43.861874 35 14.747976 0 0.9999913 0.0041564181 5.6051939e-45
53.920036 35 14.304 0.0083004273 0.99996227 0.0025606875 5.6051939e-45
63.55146 35 14.592982 0.16941476 0.98551744 0.0073473584 5.6051939e-45
73.406204 33.461594 14.592102 0.55853504 0.82948053 0.00087176671 5.6051939e-45
-72.658516 -33.076294 22.997227 -0.50279927 -0.59950793 0.62272233 5.6051939e-45
-63.119831 -33.340965 23.891876 -0.16769789 -0.60642266 0.77725738 5.6051939e-45
-53.467415 -33.715061 23.413481 -0.005444936 -0.69445676 0.71951383 5.6051939e-45
-43.81377 -33.494843 23.668127 0 -0.65352279 0.75690687 5.6051939e-45
-33.945969 -33.503475 23.711945 0 -0.64878154 0.76097476 5.6051939e-45
-24.370838 -33.585049 23.482481 0 -0.6800887 0.7331298 5.6051939e-45
-14.267922 -33.387493 23.730125 0 -0.64027375 0.76814675 5.6051939e-45
-4.6970143 -33.488415 23.697845 0 -0.64995354 0.75997394 5.6051939e-45
4.9913387 -33.779217 23.512373 0 -0.68750095 0.72618347 5.6051939e-45
14.59005 -33.520248 23.588768 0 -0.66429579 0.74746984 5.6051939e-45
24.430401 -33.562721 23.623301 0 -0.66221875 0.74931049 5.6051939e-45
34.121487 -33.591652 23.702953 0 -0.6537382 0.75672084 5.6051939e-45
43.495445 -33.361565 23.596613 0 -0.6546455 0.75593597 5.6051939e-45
53.475891 -33.577705 23.572945 0.0021317443 -0.66917127 0.74310517 5.6051939e-45
63.232304 -33.567677 23.484449 0.069004484 -0.67697626 0.73276293 5.6051939e-45
72.48204 -33.328293 23.147734 0.26734102 -0.67145658 0.69114029 5.6051939e-45
-73.303101 -24.253099 23.579994 -0.54363477 -0.024111645 0.83897549 5.6051939e-45
-63.413342 -24.536039 25 -0.12383321 -0.037480332 0.99159497 5.6051939e-45
-53.53186 -24.504192 25 -0.0039821835 -0.029748838 0.99954945 5.6051939e-45
-43.786514 -24.403063 25 0 -0.029052313 0.99957794 5.6051939e-45
-34.260979 -24.761793 25 0 -0.037873346 0.9992826 5.6051939e-45
-24.520475 -24.337166 25 0 -0.028271293 0.99960029 5.6051939e-45
-14.728156 -24.003788 25 0 -0.023679577 0.99971956 5.6051939e-45
-5.312902 -24.268507 25 0 -0.03107235 0.99951714 5.6051939e-45
4.7667699 -24.826382 25 0 -0.044026174 0.99903035 5.6051939e-45
14.583394 -24.293167 25 0 -0.027589146 0.99961936 5.6051939e-45
24.590946 -24.690807 25 0 -0.035287946 0.99937719 5.6051939e-45
34.296894 -24.539537 25 0 -0.035103887 0.99938369 5.6051939e-45
43.979279 -24.46723 25 0 -0.035057761 0.9993853 5.6051939e-45
53.600452 -24.458088 25 0.003683551 -0.034843817 0.99938601 5.6051939e-45
63.478466 -24.239895 25 0.1159998 -0.029166307 0.99282092 5.6051939e-45
72.854874 -24.541443 23.945967 0.45342931 -0.047205605 0.89004123 5.6051939e-45
-72.978439 -14.949997 23.838575 -0.48605359 0 0.87392896 5.6051939e-45
-63.312847 -14.78473 25 -0.12065513 0 0.9926945 5.6051939e-45
-53.489681 -14.465828 25 -0.0041243164 0 0.99999154 5.6051939e-45
-43.633152 -14.821764 25 0 0 1 5.6051939e-45
-33.847881 -14.822996 25 0 0 1 5.6051939e-45
-24.173515 -14.925347 25 0 0 1 5.6051939e-45
-14.893137 -14.396892 25 0 0 1 5.6051939e-45
-5.1443686 -14.577619 25 0 0 1 5.6051939e-45
4.6115065 -14.516372 25 0 0 1 5.6051939e-45
14.682063 -14.775741 25 0 0 1 5.6051939e-45
24.429106 -14.877283 25 0 0 1 5.6051939e-45
34.112438 -14.636022 25 0 0 1 5.6051939e-45
43.619755 -14.624739 25 0 0 1 5.6051939e-45
53.660908 -14.668436 25 0.0048043267 0 0.9999885 5.6051939e-45
63.244583 -14.746366 25 0.11950994 0 0.99283302 5.6051939e-45
73.109978 -14.62752 23.859306 0.48492876 0 0.87455368 5.6051939e-45
-72.943977 -5.0497994 23.861691 -0.48240957 0 0.87594575 5.6051939e-45
-63.440178 -5.1886888 25 -0.12283427 0 0.99242717 5.6051939e-45
-53.764462 -4.6820259 25 -0.0056405538 0 0.99998409 5.6051939e-45
-43.379467 -5.1936388 25 0 0 1 5.6051939e-45
-34.053478 -5.0261936 25 0 0 1 5.6051939e-45
-24.585112 -4.8189158 25 0 0 1 5.6051939e-45
-14.625975 -4.4524546 25 0 0 1 5.6051939e-45
-4.9220238 -5.1732078 25 0 0 1 5.6051939e-45
4.7134809 -4.5889816 25 0 0 1 5.6051939e-45
14.561947 -5.138526 25 0 0 1 5.6051939e-45
24.330223 -5.0521083 25 0 0 1 5.6051939e-45
33.892994 -4.8177876 25 0 0 1 5.6051939e-45
43.796482 -5.0665474 25 0 0 1 5.6051939e-45
53.693367 -4.9879446 25 0.0058135479 0 0.99998313 5.6051939e-45
63.541191 -4.9181232 25 0.12458299 0 0.9922092 5.6051939e-45
73.23661 -4.8863854 23.776941 0.50133264 0 0.86525452 5.6051939e-45
-73.143524 4.6783814 23.663624 -0.52127343 0 0.85338974 5.6051939e-45
-63.27668 4.8878217 25 -0.12004949 0 0.99276787 5.6051939e-45
-53.680729 4.9271226 25 -0.0043681143 0 0.99999046 5.6051939e-45
-43.536617 5.1053128 25 0 0 1 5.6051939e-45
-34.003872 4.8009019 25 0 0 1 5.6051939e-45
-24.449041 4.9256105 25 0 0 1 5.6051939e-45
-14.603901 4.7313728 25 0 0 1 5.6051939e-45
-4.7523541 4.6804528 25 0 0 1 5.6051939e-45
4.854115 4.584043 25 0 0 1 5.6051939e-45
14.662949 5.3280091 25 0 0 1 5.6051939e-45
24.214108 4.9065943 25 0 0 1 5.6051939e-45
33.980881 5.2566314 25 0 0 1 5.6051939e-45
44.272991 4.607224 25 0 0 1 5.6051939e-45
53.685318 4.6509566 25 0.0039432747 0 0.99999219 5.6051939e-45
63.685673 4.5324664 25 0.12705198 0 0.99189603 5.6051939e-45
73.139435 4.8166122 23.805954 0.49601671 0 0.86831301 5.6051939e-45
-73.002228 14.501597 23.820889 -0.49141961 0 0.87092292 5.6051939e-45
-63.198845 14.696995 25 -0.11870687 0 0.99292934 5.6051939e-45
-53.648876 14.670783 25 -0.0050177225 0 0.99998742 5.6051939e-45
-43.890282 14.756078 25 0 0 1 5.6051939e-45
-34.273075 14.644607 25 0 0 1 5.6051939e-45
-24.533339 14.371876 25 0 0 1 5.6051939e-45
-14.787922 14.663984 25 0 0 1 5.6051939e-45
-4.523911 14.751021 25 0 0 1 5.6051939e-45
4.7165513 14.126648 25 0 0 1 5.6051939e-45
14.805005 14.503487 25 0 0 1 5.6051939e-45
24.770393 14.715862 25 0 0 1 5.6051939e-45
34.36824 14.839122 25 0 0 1 5.6051939e-45
44.206867 14.199462 25 0 0 1 5.6051939e-45
53.396954 14.889654 25 0.0035797057 0 0.99999356 5.6051939e-45
63.364735 14.366284 25 0.12155702 0 0.99258447 5.6051939e-45
72.87468 14.563392 23.782171 0.49486586 0 0.86896938 5.6051939e-45
-73.333199 24.482294 23.649702 -0.50761294 0.063611984 0.8592338 5.6051939e-45
-63.567028 24.067286 25 -0.11853733 0.023117624 0.99268043 5.6051939e-45
-53.426823 24.249468 25 -0.0032869964 0.031132929 0.99950987 5.6051939e-45
-43.487026 24.302635 25 0 0.031054342 0.99951774 5.6051939e-45
-34.010891 24.520439 25 0 0.036769256 0.99932384 5.6051939e-45
-24.666586 24.209127 25 0 0.0284668 0.99959469 5.6051939e-45
-14.829007 24.247932 25 0 0.030250207 0.99954242 5.6051939e-45
-4.9939294 24.573498 25 0 0.032513894 0.99947131 5.6051939e-45
4.9509931 24.354532 25 0 0.038520504 0.9992578 5.6051939e-45
14.479072 24.476961 25 0 0.035051879 0.99938554 5.6051939e-45
23.891987 24.779528 25 0 0.039574064 0.99921668 5.6051939e-45
34.204689 24.675177 25 0 0.037593447 0.99929315 5.6051939e-45
44.283566 24.184229 25 0 0.02947695 0.99956542 5.6051939e-45
53.809444 24.637943 25 0.0052431482 0.041117787 0.99914056 5.6051939e-45
63.007881 24.238712 25 0.11650888 0.029685749 0.99274588 5.6051939e-45
73.008148 24.493519 23.80484 0.50347382 0.03741594 0.86320001 5.6051939e-45
-72.226303 33.326542 23.367281 -0.23421802 0.65396786 0.71935248 5.6051939e-45
-63.290359 33.148251 23.824911 -0.065057844 0.61362594 0.78691214 5.6051939e-45
-53.7295 33.556503 23.706833 -0.0021220653 0.65208852 0.75813991 5.6051939e-45
-44.380936 33.509731 23.773787 0 0.64239299 0.76637542 5.6051939e-45
-34.650024 33.647018 23.588181 0 0.67110634 0.74136114 5.6051939e-45
-24.676012 33.500671 23.676476 0 0.65285295 0.75748467 5.6051939e-45
-14.883207 33.588821 23.501652 0 0.67770016 0.73533833 5.6051939e-45
-4.684216 33.806179 23.385033 0 0.70242858 0.7117542 5.6051939e-45
5.0916743 33.7948 23.577055 0 0.6800369 0.7331779 5.6051939e-45
14.599485 33.610466 23.609037 0 0.66667289 0.74535048 5.6051939e-45
24.530954 33.645218 23.699535 0 0.65869552 0.75240958 5.6051939e-45
34.158669 33.525814 23.762232 0 0.64430976 0.76476467 5.6051939e-45
44.077374 33.608795 23.601465 0 0.66805083 0.74411565 5.6051939e-45
53.81992 33.553303 23.601347 0.0049673179 0.66451001 0.74726284 5.6051939e-45
63.221336 33.587116 23.662437 0.17308436 0.6470561 0.74253637 5.6051939e-45
72.44323 33.134968 23.063477 0.49647513 0.59910059 0.62816477 5.6051939e-45
