# .PCD v0.7 - Point Cloud Data file format
VERSION 0.7
FIELDS x y z normal_x normal_y normal_z curvature
SIZE 4 4 4 4 4 4 4
TYPE F F F F F F F
COUNT 1 1 1 1 1 1 1
WIDTH 864
HEIGHT 1
VIEWPOINT 0 0 0 1 0 0 0
POINTS 864
DATA ascii
-0.54064441 -0.19823574 -0.80232501 0 0 0 5.6051939e-45
-0.5315643 -0.19761226 -0.803294 0 0 0 5.6051939e-45
-0.52104074 -0.1983833 -0.80272186 0 0 0 5.6051939e-45
-0.51175672 -0.19725001 -0.80330569 0 0 0 5.6051939e-45
-0.50246316 -0.19806054 -0.80329239 0 0 0 5.6051939e-45
-0.49219114 -0.19815025 -0.80311167 0 0 0 5.6051939e-45
-0.48219341 -0.19804807 -0.80328536 0 0 0 5.6051939e-45
-0.47314203 -0.19749671 -0.80255198 0 0 0 5.6051939e-45
-0.46342957 -0.19790725 -0.80300379 0 0 0 5.6051939e-45
-0.45416009 -0.19850558 -0.80247205 0 0 0 5.6051939e-45
-0.44378516 -0.19824459 -0.80289048 0 0 0 5.6051939e-45
-0.43408886 -0.19821014 -0.80261493 0 0 0 5.6051939e-45
-0.42500103 -0.19854109 -0.80336207 0 0 0 5.6051939e-45
-0.41464657 -0.19798486 -0.80331761 0 0 0 5.6051939e-45
-0.40437484 -0.197872 -0.80287141 0 0 0 5.6051939e-45
-0.39441517 -0.19780917 -0.8033576 0 0 0 5.6051939e-45
-0.38494995 -0.19889352 -0.80194128 0 0 0 5.6051939e-45
-0.37575656 -0.1974034 -0.80267048 0 0 0 5.6051939e-45
-0.36647508 -0.19814219 -0.8027432 0 0 0 5.6051939e-45
-0.35557619 -0.19780374 -0.80347472 0 0 0 5.6051939e-45
-0.34526846 -0.19789028 -0.80294615 0 0 0 5.6051939e-45
-0.33627793 -0.19874066 -0.80269957 0 0 0 5.6051939e-45
-0.32631725 -0.19832948 -0.80306154 0 0 0 5.6051939e-45
-0.31684071 -0.198322 -0.8032167 0 0 0 5.6051939e-45
-0.3068383 -0.19756177 -0.8026275 0 0 0 5.6051939e-45
-0.29707259 -0.19874033 -0.80254799 0 0 0 5.6051939e-45
-0.28771505 -0.19885957 -0.80299187 0 0 0 5.6051939e-45
-0.27781415 -0.19798623 -0.80367362 0 0 0 5.6051939e-45
-0.267591 -0.19763368 -0.8033697 0 0 0 5.6051939e-45
-0.25806755 -0.19793499 -0.80256724 0 0 0 5.6051939e-45
-0.24892391 -0.19769259 -0.80361098 0 0 0 5.6051939e-45
-0.23839873 -0.19825503 -0.80332899 0 0 0 5.6051939e-45
-0.22806989 -0.19766301 -0.80348754 0 0 0 5.6051939e-45
-0.21910615 -0.19787127 -0.80325794 0 0 0 5.6051939e-45
-0.20872039 -0.19741209 -0.80396217 0 0 0 5.6051939e-45
-0.19930078 -0.19721867 -0.80366629 0 0 0 5.6051939e-45
-0.19037642 -0.19883609 -0.80234641 0 0 0 5.6051939e-45
-0.18092065 -0.19933879 -0.80248129 0 0 0 5.6051939e-45
-0.17102569 -0.19835331 -0.80243295 0 0 0 5.6051939e-45
-0.16079408 -0.1976561 -0.80347615 0 0 0 5.6051939e-45
-0.15088239 -0.19844057 -0.8027119 0 0 0 5.6051939e-45
-0.14123851 -0.19862092 -0.80369806 0 0 0 5.6051939e-45
-0.13189085 -0.19836521 -0.80278915 0 0 0 5.6051939e-45
-0.12183875 -0.19853877 -0.80260164 0 0 0 5.6051939e-45
-0.11226653 -0.19814238 -0.80362666 0 0 0 5.6051939e-45
-0.10284384 -0.19824165 -0.80288219 0 0 0 5.6051939e-45
-0.093039006 -0.1979586 -0.80351961 0 0 0 5.6051939e-45
-0.083418779 -0.19796243 -0.80260199 0 0 0 5.6051939e-45
-0.073661208 -0.19833222 -0.8022005 0 0 0 5.6051939e-45
-0.063226499 -0.19791779 -0.80304873 0 0 0 5.6051939e-45
-0.054331865 -0.19873787 -0.80312401 0 0 0 5.6051939e-45
-0.043930002 -0.198498 -0.80306673 0 0 0 5.6051939e-45
-0.03464511 -0.19751467 -0.80288982 0 0 0 5.6051939e-45
-0.023966333 -0.19780774 -0.80259842 0 0 0 5.6051939e-45
-0.013909667 -0.19864976 -0.80306894 0 0 0 5.6051939e-45
-0.0054895626 -0.19882594 -0.80230868 0 0 0 5.6051939e-45
0.0041161878 -0.19867662 -0.80280215 0 0 0 5.6051939e-45
0.014824917 -0.19913776 -0.80283123 0 0 0 5.6051939e-45
0.023723599 -0.19844668 -0.80312896 0 0 0 5.6051939e-45
0.033800233 -0.198227 -0.80327928 0 0 0 5.6051939e-45
0.043785539 -0.19744423 -0.80352247 0 0 0 5.6051939e-45
0.053399149 -0.19735239 -0.80314827 0 0 0 5.6051939e-45
0.062469166 -0.19789343 -0.80370206 0 0 0 5.6051939e-45
0.073317923 -0.19837783 -0.80417448 0 0 0 5.6051939e-45
0.082799137 -0.1984558 -0.80269051 0 0 0 5.6051939e-45
0.093165368 -0.19783972 -0.80232906 0 0 0 5.6051939e-45
0.10219031 -0.19815846 -0.80347753 0 0 0 5.6051939e-45
0.11177115 -0.1978737 -0.80351084 0 0 0 5.6051939e-45
0.12161157 -0.19755216 -0.80230767 0 0 0 5.6051939e-45
0.13163705 -0.19783621 -0.80302495 0 0 0 5.6051939e-45
0.14153586 -0.19819327 -0.80269212 0 0 0 5.6051939e-45
0.15062834 -0.19771074 -0.80341798 0 0 0 5.6051939e-45
0.16099964 -0.19795135 -0.80319458 0 0 0 5.6051939e-45
0.17109971 -0.19802208 -0.80347586 0 0 0 5.6051939e-45
0.18073109 -0.19784327 -0.8031469 0 0 0 5.6051939e-45
0.18973647 -0.19866899 -0.80303252 0 0 0 5.6051939e-45
0.19979787 -0.19768353 -0.80336761 0 0 0 5.6051939e-45
0.21013708 -0.19792628 -0.80308509 0 0 0 5.6051939e-45
0.21904698 -0.1987218 -0.80314952 0 0 0 5.6051939e-45
0.22908792 -0.19776535 -0.80369693 0 0 0 5.6051939e-45
0.23710684 -0.19873208 -0.80266619 0 0 0 5.6051939e-45
0.2478949 -0.19818269 -0.80264658 0 0 0 5.6051939e-45
0.25764516 -0.19786201 -0.80282217 0 0 0 5.6051939e-45
0.26761782 -0.19817023 -0.80277073 0 0 0 5.6051939e-45
0.27786005 -0.1979609 -0.8041203 0 0 0 5.6051939e-45
0.2885929 -0.19865018 -0.80320036 0 0 0 5.6051939e-45
0.29741815 -0.19819866 -0.80292815 0 0 0 5.6051939e-45
0.30770189 -0.19867584 -0.80233443 0 0 0 5.6051939e-45
0.31681088 -0.1978467 -0.80332094 0 0 0 5.6051939e-45
0.32625923 -0.19806151 -0.80265403 0 0 0 5.6051939e-45
0.33666697 -0.197999 -0.80337423 0 0 0 5.6051939e-45
0.34553769 -0.19817638 -0.80307585 0 0 0 5.6051939e-45
0.35632282 -0.19808793 -0.80339932 0 0 0 5.6051939e-45
0.36607891 -0.1982173 -0.80255765 0 0 0 5.6051939e-45
0.37503311 -0.19754691 -0.80302024 0 0 0 5.6051939e-45
0.38530508 -0.19824733 -0.80191284 0 0 0 5.6051939e-45
0.39456245 -0.19837868 -0.80282301 0 0 0 5.6051939e-45
0.40433481 -0.198079 -0.80260128 0 0 0 5.6051939e-45
0.41416636 -0.19799559 -0.80188435 0 0 0 5.6051939e-45
0.42385384 -0.19788851 -0.80292273 0 0 0 5.6051939e-45
0.43435585 -0.1974033 -0.80266386 0 0 0 5.6051939e-45
0.44404009 -0.19770575 -0.80259824 0 0 0 5.6051939e-45
0.45337251 -0.19801694 -0.80256766 0 0 0 5.6051939e-45
0.46352756 -0.19800045 -0.80190057 0 0 0 5.6051939e-45
0.47292522 -0.19843006 -0.80246836 0 0 0 5.6051939e-45
0.48283306 -0.19921353 -0.80183387 0 0 0 5.6051939e-45
0.49178061 -0.1977434 -0.80267841 0 0 0 5.6051939e-45
0.50247884 -0.19769113 -0.80261874 0 0 0 5.6051939e-45
0.51246864 -0.19731218 -0.80355448 0 0 0 5.6051939e-45
0.52177501 -0.19873203 -0.80311197 0 0 0 5.6051939e-45
0.53216106 -0.19796689 -0.80177051 0 0 0 5.6051939e-45
0.54131794 -0.19794677 -0.80351299 0 0 0 5.6051939e-45
0.55064386 -0.19791101 -0.80302715 0 0 0 5.6051939e-45
0.55839819 -0.19772147 -0.80346924 0 0 0 5.6051939e-45
-0.5663085 -0.18832 -0.80877197 0 0 0 5.6051939e-45
-0.56132609 -0.19270216 -0.80638677 0 0 0 5.6051939e-45
-0.55161405 -0.19254109 -0.80669719 0 0 0 5.6051939e-45
-0.54117543 -0.1919435 -0.8061747 0 0 0 5.6051939e-45
-0.53074336 -0.19243638 -0.80641627 0 0 0 5.6051939e-45
-0.52154881 -0.19233628 -0.80673641 0 0 0 5.6051939e-45
-0.51228994 -0.19246489 -0.80616021 0 0 0 5.6051939e-45
-0.50242692 -0.19263254 -0.80630934 0 0 0 5.6051939e-45
-0.49206537 -0.19192728 -0.80637664 0 0 0 5.6051939e-45
-0.48328561 -0.19142051 -0.80792296 0 0 0 5.6051939e-45
-0.47277033 -0.19271784 -0.8064518 0 0 0 5.6051939e-45
-0.46422032 -0.19235015 -0.80655396 0 0 0 5.6051939e-45
-0.45346481 -0.19218424 -0.80652255 0 0 0 5.6051939e-45
-0.44401652 -0.1927819 -0.80444086 0 0 0 5.6051939e-45
-0.43396446 -0.1919031 -0.80583763 0 0 0 5.6051939e-45
-0.4244782 -0.19154678 -0.80661386 0 0 0 5.6051939e-45
-0.41435301 -0.19198588 -0.80723101 0 0 0 5.6051939e-45
-0.40494281 -0.19190536 -0.80661547 0 0 0 5.6051939e-45
-0.39413309 -0.19232129 -0.80583799 0 0 0 5.6051939e-45
-0.38565126 -0.19253558 -0.8072328 0 0 0 5.6051939e-45
-0.37607527 -0.19181818 -0.80707908 0 0 0 5.6051939e-45
-0.36571357 -0.19263081 -0.8054626 0 0 0 5.6051939e-45
-0.35495308 -0.19272168 -0.80647308 0 0 0 5.6051939e-45
-0.34513745 -0.19196844 -0.80715013 0 0 0 5.6051939e-45
-0.3368344 -0.1921736 -0.80647916 0 0 0 5.6051939e-45
-0.32747862 -0.1928802 -0.80650347 0 0 0 5.6051939e-45
-0.31751135 -0.19227099 -0.80564249 0 0 0 5.6051939e-45
-0.30821517 -0.19163799 -0.80730104 0 0 0 5.6051939e-45
-0.29801708 -0.19191001 -0.80629772 0 0 0 5.6051939e-45
-0.28779244 -0.19257389 -0.80661821 0 0 0 5.6051939e-45
-0.27710122 -0.19198269 -0.80619681 0 0 0 5.6051939e-45
-0.26927361 -0.1920855 -0.80612373 0 0 0 5.6051939e-45
-0.25851265 -0.19235374 -0.80723053 0 0 0 5.6051939e-45
-0.24848099 -0.19173376 -0.80692911 0 0 0 5.6051939e-45
-0.23859884 -0.19217698 -0.806485 0 0 0 5.6051939e-45
-0.22850101 -0.19186856 -0.80672735 0 0 0 5.6051939e-45
-0.2203725 -0.19214882 -0.8063798 0 0 0 5.6051939e-45
-0.209611 -0.19210267 -0.80669594 0 0 0 5.6051939e-45
-0.20031931 -0.19285344 -0.80734521 0 0 0 5.6051939e-45
-0.19091591 -0.19160755 -0.80659145 0 0 0 5.6051939e-45
-0.18049128 -0.19240536 -0.8061462 0 0 0 5.6051939e-45
-0.171553 -0.19231789 -0.8061651 0 0 0 5.6051939e-45
-0.16148618 -0.19218454 -0.80777353 0 0 0 5.6051939e-45
-0.15143143 -0.19182809 -0.80757552 0 0 0 5.6051939e-45
-0.1411237 -0.19167913 -0.80617672 0 0 0 5.6051939e-45
-0.13170192 -0.19145724 -0.8066563 0 0 0 5.6051939e-45
-0.12260462 -0.19154932 -0.80673957 0 0 0 5.6051939e-45
-0.11292077 -0.19244853 -0.80586016 0 0 0 5.6051939e-45
-0.10237192 -0.19214116 -0.80634421 0 0 0 5.6051939e-45
-0.092184 -0.19234253 -0.80591989 0 0 0 5.6051939e-45
-0.082252398 -0.19211188 -0.80620891 0 0 0 5.6051939e-45
-0.072131835 -0.19255741 -0.80731559 0 0 0 5.6051939e-45
-0.063137159 -0.19213893 -0.80669087 0 0 0 5.6051939e-45
-0.053190101 -0.19248672 -0.80686998 0 0 0 5.6051939e-45
-0.04471527 -0.19184862 -0.80636495 0 0 0 5.6051939e-45
-0.034881502 -0.192555 -0.80715495 0 0 0 5.6051939e-45
-0.023835329 -0.19233108 -0.80682689 0 0 0 5.6051939e-45
-0.014823454 -0.19228555 -0.80568773 0 0 0 5.6051939e-45
-0.0055203997 -0.19224349 -0.80676734 0 0 0 5.6051939e-45
0.0042591328 -0.19204006 -0.80622673 0 0 0 5.6051939e-45
0.013446699 -0.19183151 -0.80597913 0 0 0 5.6051939e-45
0.025097627 -0.1920597 -0.80657828 0 0 0 5.6051939e-45
0.034283891 -0.19288734 -0.80588859 0 0 0 5.6051939e-45
0.044442806 -0.19129007 -0.80737078 0 0 0 5.6051939e-45
0.053998668 -0.19184388 -0.80764711 0 0 0 5.6051939e-45
0.062730223 -0.19176577 -0.80630326 0 0 0 5.6051939e-45
0.073498867 -0.1921642 -0.80613351 0 0 0 5.6051939e-45
0.083321899 -0.1922476 -0.8058812 0 0 0 5.6051939e-45
0.092762806 -0.19309974 -0.80574781 0 0 0 5.6051939e-45
0.10234967 -0.19281535 -0.80762058 0 0 0 5.6051939e-45
0.11128267 -0.19261989 -0.80477262 0 0 0 5.6051939e-45
0.12176445 -0.19193873 -0.80674595 0 0 0 5.6051939e-45
0.13194853 -0.192166 -0.80769098 0 0 0 5.6051939e-45
0.14162108 -0.19191624 -0.80693144 0 0 0 5.6051939e-45
0.15153474 -0.19158927 -0.80612826 0 0 0 5.6051939e-45
0.16045426 -0.19218493 -0.80729455 0 0 0 5.6051939e-45
0.1707429 -0.1924051 -0.80652076 0 0 0 5.6051939e-45
0.18021274 -0.19241841 -0.80596519 0 0 0 5.6051939e-45
0.1908875 -0.19268949 -0.8049587 0 0 0 5.6051939e-45
0.2000863 -0.19223362 -0.80630744 0 0 0 5.6051939e-45
0.20908789 -0.19239755 -0.80699438 0 0 0 5.6051939e-45
0.21973601 -0.19151759 -0.80741376 0 0 0 5.6051939e-45
0.2301639 -0.19294861 -0.80603236 0 0 0 5.6051939e-45
0.2391793 -0.1917859 -0.80670708 0 0 0 5.6051939e-45
0.24893938 -0.19226824 -0.80653006 0 0 0 5.6051939e-45
0.25781628 -0.19273533 -0.80564076 0 0 0 5.6051939e-45
0.26784617 -0.1927855 -0.80597162 0 0 0 5.6051939e-45
0.27789927 -0.19082683 -0.80685383 0 0 0 5.6051939e-45
0.28670201 -0.19255744 -0.8063128 0 0 0 5.6051939e-45
0.2972101 -0.19121681 -0.80708599 0 0 0 5.6051939e-45
0.30641681 -0.19186728 -0.80673033 0 0 0 5.6051939e-45
0.31673753 -0.19125527 -0.80722767 0 0 0 5.6051939e-45
0.32632908 -0.19187185 -0.8069827 0 0 0 5.6051939e-45
0.33679679 -0.19280566 -0.80656838 0 0 0 5.6051939e-45
0.34611732 -0.19291544 -0.80600899 0 0 0 5.6051939e-45
0.35549429 -0.19260469 -0.80651021 0 0 0 5.6051939e-45
0.36676624 -0.1919647 -0.80666184 0 0 0 5.6051939e-45
0.37581205 -0.19156042 -0.80654687 0 0 0 5.6051939e-45
0.38485414 -0.19229722 -0.80699968 0 0 0 5.6051939e-45
0.39484254 -0.19206744 -0.80728346 0 0 0 5.6051939e-45
0.40559319 -0.19252981 -0.80671221 0 0 0 5.6051939e-45
0.41556916 -0.19244863 -0.80586058 0 0 0 5.6051939e-45
0.42469725 -0.19275562 -0.80661732 0 0 0 5.6051939e-45
0.43472204 -0.19251525 -0.807136 0 0 0 5.6051939e-45
0.44384801 -0.19130445 -0.80660683 0 0 0 5.6051939e-45
0.45354748 -0.1920062 -0.80731064 0 0 0 5.6051939e-45
0.46233526 -0.19251378 -0.80607617 0 0 0 5.6051939e-45
0.4725022 -0.19268125 -0.80630451 0 0 0 5.6051939e-45
0.48254988 -0.19233906 -0.80585277 0 0 0 5.6051939e-45
0.49257728 -0.19244391 -0.80607146 0 0 0 5.6051939e-45
0.50258005 -0.19212151 -0.80692005 0 0 0 5.6051939e-45
0.51114774 -0.19258823 -0.80667281 0 0 0 5.6051939e-45
0.52191961 -0.19197683 -0.80607027 0 0 0 5.6051939e-45
0.53195196 -0.19216251 -0.80643684 0 0 0 5.6051939e-45
0.54238439 -0.19345576 -0.80609751 0 0 0 5.6051939e-45
0.54975802 -0.19217891 -0.80691522 0 0 0 5.6051939e-45
0.56009835 -0.19236249 -0.80726171 0 0 0 5.6051939e-45
-0.47580799 -0.185093 -0.80910701 0 0 0 5.6051939e-45
0.19894101 -0.184875 -0.80815601 0 0 0 5.6051939e-45
-0.24680029 -0.15954086 -0.80564326 0 0 0 5.6051939e-45
-0.23898762 -0.16010527 -0.80632538 0 0 0 5.6051939e-45
-0.22965027 -0.16036381 -0.80662441 0 0 0 5.6051939e-45
-0.21968532 -0.1592848 -0.80560321 0 0 0 5.6051939e-45
-0.2101839 -0.1600869 -0.806337 0 0 0 5.6051939e-45
-0.1995233 -0.15957211 -0.80564421 0 0 0 5.6051939e-45
-0.18977146 -0.15982564 -0.8059237 0 0 0 5.6051939e-45
-0.18055239 -0.15922087 -0.80501419 0 0 0 5.6051939e-45
-0.17087668 -0.15961918 -0.80508041 0 0 0 5.6051939e-45
-0.16132875 -0.16008691 -0.80615121 0 0 0 5.6051939e-45
-0.1505456 -0.15977441 -0.80586421 0 0 0 5.6051939e-45
-0.14062966 -0.15978833 -0.80649972 0 0 0 5.6051939e-45
-0.13081703 -0.1599056 -0.80652839 0 0 0 5.6051939e-45
-0.1222144 -0.16034299 -0.80565232 0 0 0 5.6051939e-45
-0.11222211 -0.15937701 -0.80608809 0 0 0 5.6051939e-45
-0.10213822 -0.15950257 -0.8059783 0 0 0 5.6051939e-45
-0.092838779 -0.15927143 -0.80604678 0 0 0 5.6051939e-45
-0.083041906 -0.1594533 -0.80535966 0 0 0 5.6051939e-45
-0.072891913 -0.15931191 -0.80534494 0 0 0 5.6051939e-45
-0.062309004 -0.15982291 -0.80499899 0 0 0 5.6051939e-45
-0.054322455 -0.16006148 -0.80610889 0 0 0 5.6051939e-45
-0.043706749 -0.16001125 -0.80575711 0 0 0 5.6051939e-45
-0.033807557 -0.15977812 -0.8061409 0 0 0 5.6051939e-45
-0.024401614 -0.15979068 -0.80543357 0 0 0 5.6051939e-45
-0.0149865 -0.15996121 -0.80568808 0 0 0 5.6051939e-45
-0.0051495559 -0.16065255 -0.80685431 0 0 0 5.6051939e-45
0.0042249998 -0.1600569 -0.80599159 0 0 0 5.6051939e-45
0.013970779 -0.15959956 -0.80646795 0 0 0 5.6051939e-45
0.024430901 -0.15910199 -0.8046872 0 0 0 5.6051939e-45
0.033533998 -0.16035029 -0.80655557 0 0 0 5.6051939e-45
0.044293415 -0.16013499 -0.80640215 0 0 0 5.6051939e-45
0.053730641 -0.16030437 -0.80631429 0 0 0 5.6051939e-45
0.063407458 -0.15913755 -0.80446208 0 0 0 5.6051939e-45
0.073468491 -0.1599213 -0.80660945 0 0 0 5.6051939e-45
0.082889199 -0.15979591 -0.80597419 0 0 0 5.6051939e-45
0.09244021 -0.16009621 -0.80606002 0 0 0 5.6051939e-45
0.10263489 -0.15987229 -0.80524528 0 0 0 5.6051939e-45
0.11185891 -0.15983941 -0.80583149 0 0 0 5.6051939e-45
0.12103859 -0.15981391 -0.80607015 0 0 0 5.6051939e-45
0.13188882 -0.16003801 -0.80589503 0 0 0 5.6051939e-45
0.14170188 -0.15964533 -0.80670315 0 0 0 5.6051939e-45
0.15115184 -0.16001342 -0.80577582 0 0 0 5.6051939e-45
0.16157037 -0.16007647 -0.80618 0 0 0 5.6051939e-45
0.170633 -0.16002369 -0.80601037 0 0 0 5.6051939e-45
0.1801405 -0.16016892 -0.80564052 0 0 0 5.6051939e-45
0.18987681 -0.15974519 -0.80551946 0 0 0 5.6051939e-45
0.20039968 -0.159335 -0.80512881 0 0 0 5.6051939e-45
0.20977901 -0.15959674 -0.80578387 0 0 0 5.6051939e-45
0.21934235 -0.15923168 -0.80461121 0 0 0 5.6051939e-45
0.22884476 -0.15965234 -0.80580193 0 0 0 5.6051939e-45
0.23926049 -0.15979891 -0.80561513 0 0 0 5.6051939e-45
0.24685958 -0.16020742 -0.80583698 0 0 0 5.6051939e-45
-0.247811 -0.155031 -0.801781 0 0 0 5.6051939e-45
-0.23926984 -0.15458034 -0.80132967 0 0 0 5.6051939e-45
-0.22833323 -0.15428975 -0.80076599 0 0 0 5.6051939e-45
-0.21960783 -0.15462549 -0.8015635 0 0 0 5.6051939e-45
-0.21011941 -0.1546178 -0.80190086 0 0 0 5.6051939e-45
-0.198815 -0.15429033 -0.80170965 0 0 0 5.6051939e-45
-0.18968575 -0.15502374 -0.80174577 0 0 0 5.6051939e-45
-0.18119401 -0.15417449 -0.80298555 0 0 0 5.6051939e-45
-0.17158425 -0.15392099 -0.80168551 0 0 0 5.6051939e-45
-0.161008 -0.154195 -0.80196416 0 0 0 5.6051939e-45
-0.15273418 -0.1542545 -0.80153304 0 0 0 5.6051939e-45
-0.14109261 -0.1544452 -0.80100715 0 0 0 5.6051939e-45
-0.13220274 -0.15511301 -0.80220824 0 0 0 5.6051939e-45
-0.122741 -0.154946 -0.80134296 0 0 0 5.6051939e-45
-0.1127064 -0.15458 -0.80170524 0 0 0 5.6051939e-45
-0.10276117 -0.154393 -0.8022427 0 0 0 5.6051939e-45
-0.091440998 -0.15341115 -0.80146027 0 0 0 5.6051939e-45
-0.082522877 -0.153419 -0.80190474 0 0 0 5.6051939e-45
-0.073498249 -0.15510225 -0.80214953 0 0 0 5.6051939e-45
-0.063563801 -0.154515 -0.80136758 0 0 0 5.6051939e-45
-0.053955801 -0.1541914 -0.80194795 0 0 0 5.6051939e-45
-0.044623498 -0.15404734 -0.80233699 0 0 0 5.6051939e-45
-0.034024753 -0.15461874 -0.80247104 0 0 0 5.6051939e-45
-0.023806715 -0.15436073 -0.80154359 0 0 0 5.6051939e-45
-0.013616 -0.15475979 -0.80263442 0 0 0 5.6051939e-45
-0.0065792501 -0.15444499 -0.80156827 0 0 0 5.6051939e-45
0.0041091251 -0.15382975 -0.80121303 0 0 0 5.6051939e-45
0.014917401 -0.1542152 -0.80208004 0 0 0 5.6051939e-45
0.023182286 -0.15377243 -0.80172855 0 0 0 5.6051939e-45
0.035094004 -0.15505867 -0.80192763 0 0 0 5.6051939e-45
0.044991497 -0.15443383 -0.8024509 0 0 0 5.6051939e-45
0.052645501 -0.15452476 -0.80198228 0 0 0 5.6051939e-45
0.062516004 -0.15451799 -0.80194676 0 0 0 5.6051939e-45
0.072370499 -0.155027 -0.80176353 0 0 0 5.6051939e-45
0.083411753 -0.15407375 -0.80247974 0 0 0 5.6051939e-45
0.093933396 -0.153852 -0.80244523 0 0 0 5.6051939e-45
0.10147513 -0.15405028 -0.80154562 0 0 0 5.6051939e-45
0.112889 -0.15387225 -0.80142981 0 0 0 5.6051939e-45
0.12232081 -0.154099 -0.8014735 0 0 0 5.6051939e-45
0.13163784 -0.15436867 -0.80212134 0 0 0 5.6051939e-45
0.1419505 -0.15443575 -0.80152547 0 0 0 5.6051939e-45
0.1515606 -0.15395799 -0.80074376 0 0 0 5.6051939e-45
0.15975258 -0.15438686 -0.80167544 0 0 0 5.6051939e-45
0.17150085 -0.15438066 -0.80217654 0 0 0 5.6051939e-45
0.17959259 -0.15433919 -0.80271196 0 0 0 5.6051939e-45
0.18992324 -0.15521525 -0.80273521 0 0 0 5.6051939e-45
0.19961724 -0.15507075 -0.80198801 0 0 0 5.6051939e-45
0.20920433 -0.15340883 -0.80091065 0 0 0 5.6051939e-45
0.21831928 -0.15406415 -0.80161315 0 0 0 5.6051939e-45
0.2270155 -0.15505749 -0.80191946 0 0 0 5.6051939e-45
0.23960677 -0.15540449 -0.80371523 0 0 0 5.6051939e-45
0.24799532 -0.15514635 -0.80238032 0 0 0 5.6051939e-45
-0.224526 -0.100819 -0.80478501 0 0 0 5.6051939e-45
-0.224169 -0.105035 -0.803505 0 0 0 5.6051939e-45
0.22523201 -0.101818 -0.80574656 0 0 0 5.6051939e-45
-0.247439 -0.089390002 -0.80057597 0 0 0 5.6051939e-45
-0.22534581 -0.093772806 -0.8045786 0 0 0 5.6051939e-45
-0.2239375 -0.090716004 -0.80267549 0 0 0 5.6051939e-45
0.092376605 -0.0919718 -0.80408859 0 0 0 5.6051939e-45
0.22639939 -0.092542209 -0.80522424 0 0 0 5.6051939e-45
0.236682 -0.089463003 -0.80122501 0 0 0 5.6051939e-45
0.24967 -0.089405 -0.80070901 0 0 0 5.6051939e-45
-0.24734621 -0.082618363 -0.8041653 0 0 0 5.6051939e-45
-0.23922692 -0.082718059 -0.80405599 0 0 0 5.6051939e-45
-0.22950619 -0.082815945 -0.80478531 0 0 0 5.6051939e-45
-0.22413801 -0.085329004 -0.80339402 0 0 0 5.6051939e-45
0.093690298 -0.082767799 -0.80403721 0 0 0 5.6051939e-45
0.22394399 -0.087440997 -0.80269998 0 0 0 5.6051939e-45
0.22899346 -0.082826346 -0.80463713 0 0 0 5.6051939e-45
0.23891857 -0.083043002 -0.80359125 0 0 0 5.6051939e-45
0.24724945 -0.082783774 -0.80490184 0 0 0 5.6051939e-45
-0.2457605 -0.076054499 -0.80947202 0 0 0 5.6051939e-45
-0.23650301 -0.075559333 -0.80810136 0 0 0 5.6051939e-45
-0.22763801 -0.077018 -0.80801803 0 0 0 5.6051939e-45
0.096276999 -0.073948503 -0.80453652 0 0 0 5.6051939e-45
0.2301545 -0.077121004 -0.80909348 0 0 0 5.6051939e-45
0.238758 -0.076491252 -0.80825901 0 0 0 5.6051939e-45
0.245446 -0.075955503 -0.80843747 0 0 0 5.6051939e-45
0.096273199 -0.065221198 -0.80360186 0 0 0 5.6051939e-45
0.099244662 -0.061487332 -0.80631942 0 0 0 5.6051939e-45
0.096285 -0.056650002 -0.80005598 0 0 0 5.6051939e-45
0.099886656 -0.053751666 -0.80556017 0 0 0 5.6051939e-45
0.10084928 -0.043629456 -0.80468422 0 0 0 5.6051939e-45
0.10294759 -0.034169 -0.80422497 0 0 0 5.6051939e-45
0.053832829 -0.0211445 -0.80334467 0 0 0 5.6051939e-45
0.0638979 -0.020840101 -0.80561131 0 0 0 5.6051939e-45
0.073530994 -0.020959143 -0.80420583 0 0 0 5.6051939e-45
0.082671799 -0.021231601 -0.80388772 0 0 0 5.6051939e-45
0.092357874 -0.021342374 -0.80395746 0 0 0 5.6051939e-45
0.10328507 -0.023264153 -0.80474973 0 0 0 5.6051939e-45
-0.296074 -0.215178 -0.79012102 0 0 0 5.6051939e-45
-0.27689999 -0.21539199 -0.79090798 0 0 0 5.6051939e-45
-0.239876 -0.21517 -0.79009199 0 0 0 5.6051939e-45
-0.233491 -0.21526 -0.79042202 0 0 0 5.6051939e-45
-0.20537201 -0.21524601 -0.79037201 0 0 0 5.6051939e-45
-0.111331 -0.2152385 -0.79034555 0 0 0 5.6051939e-45
0.093020998 -0.215391 -0.79090399 0 0 0 5.6051939e-45
0.248667 -0.215297 -0.79055798 0 0 0 5.6051939e-45
0.33929101 -0.215174 -0.79010803 0 0 0 5.6051939e-45
0.40445799 -0.215352 -0.79075998 0 0 0 5.6051939e-45
-0.55636698 -0.206652 -0.7945745 0 0 0 5.6051939e-45
-0.55023921 -0.20743792 -0.79345489 0 0 0 5.6051939e-45
-0.54138947 -0.20813976 -0.79296589 0 0 0 5.6051939e-45
-0.53091419 -0.20807357 -0.79227042 0 0 0 5.6051939e-45
-0.52215034 -0.20759845 -0.79331857 0 0 0 5.6051939e-45
-0.51260889 -0.20737492 -0.79257452 0 0 0 5.6051939e-45
-0.50167972 -0.20751476 -0.7926445 0 0 0 5.6051939e-45
-0.49298477 -0.20803572 -0.79354161 0 0 0 5.6051939e-45
-0.4825342 -0.20734356 -0.79309046 0 0 0 5.6051939e-45
-0.47329554 -0.20790502 -0.7930339 0 0 0 5.6051939e-45
-0.46400911 -0.207057 -0.79273438 0 0 0 5.6051939e-45
-0.45371529 -0.20766951 -0.79315382 0 0 0 5.6051939e-45
-0.44363582 -0.20764899 -0.79298717 0 0 0 5.6051939e-45
-0.43442866 -0.20799501 -0.79283285 0 0 0 5.6051939e-45
-0.42455298 -0.20757738 -0.79295415 0 0 0 5.6051939e-45
-0.41373467 -0.20749925 -0.79369545 0 0 0 5.6051939e-45
-0.40472272 -0.20860505 -0.79241675 0 0 0 5.6051939e-45
-0.39421991 -0.20804395 -0.79222912 0 0 0 5.6051939e-45
-0.38520712 -0.20802422 -0.79239458 0 0 0 5.6051939e-45
-0.37571445 -0.20800085 -0.79257029 0 0 0 5.6051939e-45
-0.36560503 -0.20798847 -0.79237926 0 0 0 5.6051939e-45
-0.35652998 -0.20815457 -0.79360783 0 0 0 5.6051939e-45
-0.34597868 -0.20795658 -0.79322249 0 0 0 5.6051939e-45
-0.33659598 -0.20777416 -0.79266804 0 0 0 5.6051939e-45
-0.32696423 -0.20814708 -0.79227608 0 0 0 5.6051939e-45
-0.3174316 -0.20743476 -0.7940622 0 0 0 5.6051939e-45
-0.30712983 -0.20768239 -0.79248208 0 0 0 5.6051939e-45
-0.2969344 -0.20758393 -0.79282773 0 0 0 5.6051939e-45
-0.28778172 -0.20791923 -0.79338557 0 0 0 5.6051939e-45
-0.27762827 -0.20869844 -0.79260629 0 0 0 5.6051939e-45
-0.26822168 -0.20785165 -0.79296726 0 0 0 5.6051939e-45
-0.25793794 -0.20786743 -0.79303485 0 0 0 5.6051939e-45
-0.24889213 -0.20821618 -0.79312307 0 0 0 5.6051939e-45
-0.23916268 -0.20818974 -0.79220539 0 0 0 5.6051939e-45
-0.22937189 -0.20805377 -0.7928974 0 0 0 5.6051939e-45
-0.2190648 -0.20712191 -0.79299319 0 0 0 5.6051939e-45
-0.21043269 -0.20888428 -0.79267836 0 0 0 5.6051939e-45
-0.2002591 -0.2068577 -0.79348773 0 0 0 5.6051939e-45
-0.19090606 -0.20851015 -0.79314816 0 0 0 5.6051939e-45
-0.18135826 -0.20793468 -0.79328579 0 0 0 5.6051939e-45
-0.17195307 -0.20804369 -0.79286098 0 0 0 5.6051939e-45
-0.16154917 -0.20737901 -0.79322314 0 0 0 5.6051939e-45
-0.1518115 -0.20775858 -0.79290956 0 0 0 5.6051939e-45
-0.14140691 -0.20758884 -0.793338 0 0 0 5.6051939e-45
-0.13202587 -0.2076755 -0.79317921 0 0 0 5.6051939e-45
-0.12251658 -0.20781134 -0.79281187 0 0 0 5.6051939e-45
-0.111667 -0.20851232 -0.7927525 0 0 0 5.6051939e-45
-0.10252274 -0.20847 -0.79300159 0 0 0 5.6051939e-45
-0.092101075 -0.20805915 -0.79229081 0 0 0 5.6051939e-45
-0.083398946 -0.20813462 -0.7919935 0 0 0 5.6051939e-45
-0.072777286 -0.20766966 -0.79256541 0 0 0 5.6051939e-45
-0.063630223 -0.20752169 -0.79377544 0 0 0 5.6051939e-45
-0.054857146 -0.20830794 -0.79324532 0 0 0 5.6051939e-45
-0.042903773 -0.20728095 -0.79348212 0 0 0 5.6051939e-45
-0.033457085 -0.20778601 -0.79341006 0 0 0 5.6051939e-45
-0.023860728 -0.20774055 -0.79310852 0 0 0 5.6051939e-45
-0.015000769 -0.20793101 -0.79215753 0 0 0 5.6051939e-45
-0.0054228338 -0.20769782 -0.79307437 0 0 0 5.6051939e-45
0.0043383529 -0.20826465 -0.79321522 0 0 0 5.6051939e-45
0.014101499 -0.20811211 -0.79328102 0 0 0 5.6051939e-45
0.024014929 -0.20810208 -0.79304552 0 0 0 5.6051939e-45
0.034525309 -0.20744194 -0.79283249 0 0 0 5.6051939e-45
0.044003874 -0.20637763 -0.79456025 0 0 0 5.6051939e-45
0.054249998 -0.2074168 -0.79336417 0 0 0 5.6051939e-45
0.063668527 -0.20847476 -0.79304856 0 0 0 5.6051939e-45
0.073043838 -0.20739399 -0.79264098 0 0 0 5.6051939e-45
0.083190933 -0.20800766 -0.79343331 0 0 0 5.6051939e-45
0.092772834 -0.20797859 -0.79344386 0 0 0 5.6051939e-45
0.10279562 -0.20802937 -0.79317349 0 0 0 5.6051939e-45
0.11317385 -0.20887251 -0.79245746 0 0 0 5.6051939e-45
0.12248734 -0.20765701 -0.79338115 0 0 0 5.6051939e-45
0.13112791 -0.20817216 -0.79350281 0 0 0 5.6051939e-45
0.1413233 -0.20782243 -0.79315364 0 0 0 5.6051939e-45
0.15089528 -0.20793322 -0.79297984 0 0 0 5.6051939e-45
0.16100979 -0.20803145 -0.79396409 0 0 0 5.6051939e-45
0.17084084 -0.20714016 -0.79230952 0 0 0 5.6051939e-45
0.18006107 -0.20833093 -0.79242969 0 0 0 5.6051939e-45
0.18958536 -0.20788471 -0.79280883 0 0 0 5.6051939e-45
0.20021072 -0.20680644 -0.79328787 0 0 0 5.6051939e-45
0.20963375 -0.20836623 -0.79287881 0 0 0 5.6051939e-45
0.21951255 -0.20726132 -0.79340684 0 0 0 5.6051939e-45
0.22911151 -0.20796956 -0.79273331 0 0 0 5.6051939e-45
0.23981468 -0.20741928 -0.79406768 0 0 0 5.6051939e-45
0.24882308 -0.20711054 -0.79293919 0 0 0 5.6051939e-45
0.25854617 -0.20788434 -0.79338467 0 0 0 5.6051939e-45
0.26884389 -0.20801753 -0.79267293 0 0 0 5.6051939e-45
0.27832815 -0.20767464 -0.79308808 0 0 0 5.6051939e-45
0.28779808 -0.20771217 -0.7931239 0 0 0 5.6051939e-45
0.29712436 -0.20791936 -0.79292595 0 0 0 5.6051939e-45
0.30699739 -0.20765407 -0.79300457 0 0 0 5.6051939e-45
0.31666559 -0.20787784 -0.79336703 0 0 0 5.6051939e-45
0.32709509 -0.20840421 -0.79256541 0 0 0 5.6051939e-45
0.3366853 -0.20692539 -0.79313582 0 0 0 5.6051939e-45
0.34706947 -0.20822881 -0.79307294 0 0 0 5.6051939e-45
0.35662332 -0.2069636 -0.79301047 0 0 0 5.6051939e-45
0.36594436 -0.20778714 -0.79301357 0 0 0 5.6051939e-45
0.37516215 -0.20727925 -0.79284286 0 0 0 5.6051939e-45
0.38555202 -0.20817772 -0.79216111 0 0 0 5.6051939e-45
0.39585862 -0.20714922 -0.79304093 0 0 0 5.6051939e-45
0.4054175 -0.20753542 -0.79264146 0 0 0 5.6051939e-45
0.4146376 -0.20732035 -0.79299712 0 0 0 5.6051939e-45
0.42327654 -0.20781407 -0.79235262 0 0 0 5.6051939e-45
0.43389934 -0.20786847 -0.79345047 0 0 0 5.6051939e-45
0.44425169 -0.20743595 -0.79285139 0 0 0 5.6051939e-45
0.45473409 -0.20817122 -0.79330891 0 0 0 5.6051939e-45
0.46289015 -0.20749559 -0.79298514 0 0 0 5.6051939e-45
0.47253388 -0.20788944 -0.79222679 0 0 0 5.6051939e-45
0.48300827 -0.20780201 -0.79278177 0 0 0 5.6051939e-45
0.49332371 -0.20828968 -0.7925877 0 0 0 5.6051939e-45
0.50261372 -0.2075758 -0.79280055 0 0 0 5.6051939e-45
0.51141447 -0.20740518 -0.79258025 0 0 0 5.6051939e-45
0.52139437 -0.20819141 -0.79289961 0 0 0 5.6051939e-45
0.53107947 -0.20701411 -0.79348749 0 0 0 5.6051939e-45
0.54136443 -0.20808773 -0.79318881 0 0 0 5.6051939e-45
0.55066079 -0.20760386 -0.79340214 0 0 0 5.6051939e-45
-0.55857253 -0.20114975 -0.79850525 0 0 0 5.6051939e-45
-0.55160564 -0.20190151 -0.79779583 0 0 0 5.6051939e-45
-0.54146558 -0.20179246 -0.7967574 0 0 0 5.6051939e-45
-0.53200418 -0.20236216 -0.79744506 0 0 0 5.6051939e-45
-0.52293426 -0.20226201 -0.79782391 0 0 0 5.6051939e-45
-0.51112652 -0.20218235 -0.7967394 0 0 0 5.6051939e-45
-0.50200272 -0.20150162 -0.79691797 0 0 0 5.6051939e-45
-0.49253887 -0.20219851 -0.7975015 0 0 0 5.6051939e-45
-0.48300904 -0.20250708 -0.79629081 0 0 0 5.6051939e-45
-0.47217008 -0.20192158 -0.79797298 0 0 0 5.6051939e-45
-0.46335167 -0.20190401 -0.79719472 0 0 0 5.6051939e-45
-0.4533478 -0.20129976 -0.79745066 0 0 0 5.6051939e-45
-0.44304752 -0.20230024 -0.79613584 0 0 0 5.6051939e-45
-0.43350667 -0.20291966 -0.79644865 0 0 0 5.6051939e-45
-0.4239133 -0.20191899 -0.79725331 0 0 0 5.6051939e-45
-0.41544446 -0.2022828 -0.79712695 0 0 0 5.6051939e-45
-0.40490898 -0.20173065 -0.79651368 0 0 0 5.6051939e-45
-0.39494008 -0.20204474 -0.79775071 0 0 0 5.6051939e-45
-0.38461396 -0.20177948 -0.79670417 0 0 0 5.6051939e-45
-0.37494379 -0.202071 -0.79698759 0 0 0 5.6051939e-45
-0.36572477 -0.20192185 -0.79726517 0 0 0 5.6051939e-45
-0.35626438 -0.20213909 -0.79812038 0 0 0 5.6051939e-45
-0.34556553 -0.201905 -0.79642278 0 0 0 5.6051939e-45
-0.33593136 -0.20174962 -0.79658437 0 0 0 5.6051939e-45
-0.32804275 -0.201728 -0.79756635 0 0 0 5.6051939e-45
-0.31668064 -0.20115672 -0.79731685 0 0 0 5.6051939e-45
-0.30757841 -0.20183842 -0.79753637 0 0 0 5.6051939e-45
-0.2980364 -0.20245412 -0.79594511 0 0 0 5.6051939e-45
-0.28717601 -0.20220535 -0.79742825 0 0 0 5.6051939e-45
-0.27802905 -0.20228034 -0.79725647 0 0 0 5.6051939e-45
-0.26849183 -0.20114772 -0.79763764 0 0 0 5.6051939e-45
-0.25937954 -0.20285803 -0.79629666 0 0 0 5.6051939e-45
-0.24850936 -0.20185128 -0.79698604 0 0 0 5.6051939e-45
-0.23937011 -0.20190722 -0.79720372 0 0 0 5.6051939e-45
-0.22904743 -0.20128447 -0.79703075 0 0 0 5.6051939e-45
-0.21917146 -0.20204109 -0.79695684 0 0 0 5.6051939e-45
-0.21022293 -0.20088962 -0.79801464 0 0 0 5.6051939e-45
-0.20026529 -0.20156607 -0.7970863 0 0 0 5.6051939e-45
-0.18985009 -0.20078625 -0.79706573 0 0 0 5.6051939e-45
-0.17985612 -0.20187013 -0.79705811 0 0 0 5.6051939e-45
-0.16974311 -0.20178546 -0.79750687 0 0 0 5.6051939e-45
-0.16046529 -0.20102909 -0.79741973 0 0 0 5.6051939e-45
-0.15166751 -0.20197812 -0.7964173 0 0 0 5.6051939e-45
-0.14147907 -0.20111853 -0.79673493 0 0 0 5.6051939e-45
-0.13123679 -0.20186429 -0.79703003 0 0 0 5.6051939e-45
-0.12182084 -0.20263357 -0.79651183 0 0 0 5.6051939e-45
-0.11209082 -0.20230852 -0.79646736 0 0 0 5.6051939e-45
-0.10236669 -0.20233661 -0.79758173 0 0 0 5.6051939e-45
-0.092607498 -0.20154829 -0.79664677 0 0 0 5.6051939e-45
-0.082518607 -0.20189302 -0.79715538 0 0 0 5.6051939e-45
-0.073192373 -0.20237489 -0.79583871 0 0 0 5.6051939e-45
-0.063588925 -0.20230053 -0.79743588 0 0 0 5.6051939e-45
-0.053401668 -0.20291567 -0.79688764 0 0 0 5.6051939e-45
-0.04340018 -0.20204616 -0.79697704 0 0 0 5.6051939e-45
-0.03302262 -0.20113367 -0.79680032 0 0 0 5.6051939e-45
-0.024605528 -0.20185877 -0.79653209 0 0 0 5.6051939e-45
-0.014400398 -0.20160079 -0.79771513 0 0 0 5.6051939e-45
-0.006174833 -0.20329882 -0.7969768 0 0 0 5.6051939e-45
0.0047589997 -0.20226489 -0.79782718 0 0 0 5.6051939e-45
0.013922902 -0.2016689 -0.79543698 0 0 0 5.6051939e-45
0.02447669 -0.20231245 -0.7968381 0 0 0 5.6051939e-45
0.03370633 -0.202806 -0.79789227 0 0 0 5.6051939e-45
0.043771062 -0.20135018 -0.79768544 0 0 0 5.6051939e-45
0.053553749 -0.20206815 -0.79641777 0 0 0 5.6051939e-45
0.064008266 -0.2010376 -0.79777437 0 0 0 5.6051939e-45
0.073102497 -0.20228188 -0.79782677 0 0 0 5.6051939e-45
0.083414584 -0.20229234 -0.79729122 0 0 0 5.6051939e-45
0.092343181 -0.2016439 -0.79695344 0 0 0 5.6051939e-45
0.10249725 -0.20247318 -0.79588079 0 0 0 5.6051939e-45
0.11273674 -0.20189174 -0.79644275 0 0 0 5.6051939e-45
0.12219579 -0.20209937 -0.79675102 0 0 0 5.6051939e-45
0.13150238 -0.20202492 -0.79766732 0 0 0 5.6051939e-45
0.14155099 -0.20252171 -0.79620701 0 0 0 5.6051939e-45
0.15112132 -0.20156328 -0.79717255 0 0 0 5.6051939e-45
0.16119932 -0.20212327 -0.79733974 0 0 0 5.6051939e-45
0.17055537 -0.20200028 -0.79757822 0 0 0 5.6051939e-45
0.18000579 -0.20170744 -0.79704297 0 0 0 5.6051939e-45
0.19029289 -0.20190135 -0.79718405 0 0 0 5.6051939e-45
0.1991477 -0.20183273 -0.79691643 0 0 0 5.6051939e-45
0.20929831 -0.20133382 -0.79710346 0 0 0 5.6051939e-45
0.22040471 -0.20170836 -0.79641151 0 0 0 5.6051939e-45
0.22944251 -0.20238948 -0.79739153 0 0 0 5.6051939e-45
0.240003 -0.20122001 -0.79713893 0 0 0 5.6051939e-45
0.24849188 -0.2018784 -0.79623592 0 0 0 5.6051939e-45
0.25845706 -0.20221521 -0.79598671 0 0 0 5.6051939e-45
0.26851857 -0.20280233 -0.79598916 0 0 0 5.6051939e-45
0.27790678 -0.20074143 -0.79690182 0 0 0 5.6051939e-45
0.28795674 -0.20218007 -0.7975679 0 0 0 5.6051939e-45
0.29741418 -0.20142426 -0.79686755 0 0 0 5.6051939e-45
0.30683544 -0.20230389 -0.79687214 0 0 0 5.6051939e-45
0.31691146 -0.20232491 -0.798069 0 0 0 5.6051939e-45
0.32651237 -0.20291574 -0.7958324 0 0 0 5.6051939e-45
0.33590415 -0.20216928 -0.79746246 0 0 0 5.6051939e-45
0.34683239 -0.20205523 -0.7971226 0 0 0 5.6051939e-45
0.35637191 -0.20177382 -0.79667395 0 0 0 5.6051939e-45
0.3662791 -0.20267409 -0.79710871 0 0 0 5.6051939e-45
0.37602296 -0.20147838 -0.79749513 0 0 0 5.6051939e-45
0.38509223 -0.20237364 -0.79748648 0 0 0 5.6051939e-45
0.39510056 -0.20304917 -0.79681396 0 0 0 5.6051939e-45
0.40434551 -0.20248117 -0.79713404 0 0 0 5.6051939e-45
0.4147065 -0.20220928 -0.79761583 0 0 0 5.6051939e-45
0.42443317 -0.20214777 -0.7969383 0 0 0 5.6051939e-45
0.43392637 -0.20190915 -0.79722756 0 0 0 5.6051939e-45
0.44349682 -0.20180932 -0.79813874 0 0 0 5.6051939e-45
0.45368433 -0.20207936 -0.79710752 0 0 0 5.6051939e-45
0.46316403 -0.20226732 -0.79730821 0 0 0 5.6051939e-45
0.47390619 -0.20225766 -0.79763252 0 0 0 5.6051939e-45
0.48327509 -0.2022806 -0.79697382 0 0 0 5.6051939e-45
0.49293229 -0.20165992 -0.79689133 0 0 0 5.6051939e-45
0.50118178 -0.2013381 -0.79639572 0 0 0 5.6051939e-45
0.51159894 -0.20185922 -0.79763108 0 0 0 5.6051939e-45
0.52290219 -0.201553 -0.79704857 0 0 0 5.6051939e-45
0.53129023 -0.20171635 -0.79717016 0 0 0 5.6051939e-45
0.54148108 -0.20209301 -0.7979396 0 0 0 5.6051939e-45
0.55112588 -0.20199527 -0.7975505 0 0 0 5.6051939e-45
-0.21211401 -0.156764 -0.79948598 0 0 0 5.6051939e-45
-0.0054645003 -0.15660051 -0.79865301 0 0 0 5.6051939e-45
-0.24699318 -0.1505146 -0.79633152 0 0 0 5.6051939e-45
-0.23950116 -0.14940743 -0.79604006 0 0 0 5.6051939e-45
-0.22947152 -0.14972587 -0.79599345 0 0 0 5.6051939e-45
-0.21911101 -0.14917858 -0.79577613 0 0 0 5.6051939e-45
-0.20920354 -0.14957927 -0.79598063 0 0 0 5.6051939e-45
-0.20099574 -0.15010415 -0.79610348 0 0 0 5.6051939e-45
-0.19041882 -0.15003002 -0.7962243 0 0 0 5.6051939e-45
-0.17938964 -0.1498543 -0.79497868 0 0 0 5.6051939e-45
-0.16999592 -0.15008952 -0.79604083 0 0 0 5.6051939e-45
-0.16088462 -0.14936315 -0.79572368 0 0 0 5.6051939e-45
-0.15058583 -0.14915454 -0.79582733 0 0 0 5.6051939e-45
-0.14158294 -0.1496398 -0.79549015 0 0 0 5.6051939e-45
-0.13139322 -0.149828 -0.79553676 0 0 0 5.6051939e-45
-0.12197181 -0.1503213 -0.79633468 0 0 0 5.6051939e-45
-0.11234982 -0.14958434 -0.79504877 0 0 0 5.6051939e-45
-0.10212216 -0.14918555 -0.79567397 0 0 0 5.6051939e-45
-0.093246102 -0.14989612 -0.7965191 0 0 0 5.6051939e-45
-0.082951456 -0.14922746 -0.79620624 0 0 0 5.6051939e-45
-0.072912261 -0.14952809 -0.79572374 0 0 0 5.6051939e-45
-0.063126765 -0.15005031 -0.79583156 0 0 0 5.6051939e-45
-0.053249002 -0.14960875 -0.79614806 0 0 0 5.6051939e-45
-0.043040689 -0.14992402 -0.79603612 0 0 0 5.6051939e-45
-0.033749077 -0.1497771 -0.79607147 0 0 0 5.6051939e-45
-0.024495667 -0.14942724 -0.79613954 0 0 0 5.6051939e-45
-0.014852166 -0.148936 -0.79448456 0 0 0 5.6051939e-45
-0.0050768331 -0.14977776 -0.79607481 0 0 0 5.6051939e-45
0.004532333 -0.14910017 -0.79536724 0 0 0 5.6051939e-45
0.014153101 -0.14981501 -0.79608357 0 0 0 5.6051939e-45
0.024417 -0.149358 -0.79479915 0 0 0 5.6051939e-45
0.033525232 -0.15003815 -0.79665875 0 0 0 5.6051939e-45
0.043082498 -0.1496065 -0.79613501 0 0 0 5.6051939e-45
0.053727418 -0.14982317 -0.79631847 0 0 0 5.6051939e-45
0.063436866 -0.1500482 -0.79632473 0 0 0 5.6051939e-45
0.073042214 -0.15009879 -0.79544699 0 0 0 5.6051939e-45
0.082505926 -0.14998086 -0.79658997 0 0 0 5.6051939e-45
0.092250228 -0.1498767 -0.79578811 0 0 0 5.6051939e-45
0.10314245 -0.14912909 -0.79464036 0 0 0 5.6051939e-45
0.11175738 -0.15015107 -0.79636943 0 0 0 5.6051939e-45
0.12142354 -0.14942138 -0.79603988 0 0 0 5.6051939e-45
0.13165991 -0.14942323 -0.79514384 0 0 0 5.6051939e-45
0.14138554 -0.14978714 -0.796202 0 0 0 5.6051939e-45
0.15029375 -0.14965241 -0.79540682 0 0 0 5.6051939e-45
0.16116349 -0.14891891 -0.79535913 0 0 0 5.6051939e-45
0.17000292 -0.14937235 -0.79593885 0 0 0 5.6051939e-45
0.18051827 -0.14971109 -0.79585832 0 0 0 5.6051939e-45
0.19058871 -0.14965014 -0.7963686 0 0 0 5.6051939e-45
0.1999905 -0.15016265 -0.79620785 0 0 0 5.6051939e-45
0.20906429 -0.14948346 -0.79546219 0 0 0 5.6051939e-45
0.21920568 -0.14918016 -0.79481989 0 0 0 5.6051939e-45
0.22900838 -0.15025549 -0.79598111 0 0 0 5.6051939e-45
0.23905267 -0.14972553 -0.79599434 0 0 0 5.6051939e-45
0.24675736 -0.14936937 -0.79486388 0 0 0 5.6051939e-45
-0.24543899 -0.143181 -0.79060751 0 0 0 5.6051939e-45
-0.239126 -0.1432855 -0.79118502 0 0 0 5.6051939e-45
-0.22896083 -0.144188 -0.79219866 0 0 0 5.6051939e-45
-0.2208105 -0.14387575 -0.79146969 0 0 0 5.6051939e-45
-0.20932867 -0.14445667 -0.79169732 0 0 0 5.6051939e-45
-0.20027149 -0.14443499 -0.79158002 0 0 0 5.6051939e-45
-0.19012499 -0.14359221 -0.79168761 0 0 0 5.6051939e-45
-0.18183666 -0.14440866 -0.79143566 0 0 0 5.6051939e-45
-0.16907801 -0.14244699 -0.79250902 0 0 0 5.6051939e-45
-0.1633085 -0.1442955 -0.79081154 0 0 0 5.6051939e-45
-0.15164199 -0.14451419 -0.79201156 0 0 0 5.6051939e-45
-0.14288101 -0.1433465 -0.79150796 0 0 0 5.6051939e-45
-0.13057934 -0.14366567 -0.79129499 0 0 0 5.6051939e-45
-0.122306 -0.14387076 -0.79143751 0 0 0 5.6051939e-45
-0.11321766 -0.14288534 -0.7909503 0 0 0 5.6051939e-45
-0.10090375 -0.14475375 -0.79332596 0 0 0 5.6051939e-45
-0.092574745 -0.14392549 -0.79173601 0 0 0 5.6051939e-45
-0.083311252 -0.14381999 -0.79115629 0 0 0 5.6051939e-45
-0.072548002 -0.144471 -0.7917785 0 0 0 5.6051939e-45
-0.062765665 -0.14438033 -0.79127795 0 0 0 5.6051939e-45
-0.053686798 -0.14355358 -0.79146701 0 0 0 5.6051939e-45
-0.042232752 -0.14447799 -0.79181451 0 0 0 5.6051939e-45
-0.032466501 -0.1443975 -0.7913745 0 0 0 5.6051939e-45
-0.02458 -0.14469968 -0.79302806 0 0 0 5.6051939e-45
-0.014071 -0.14441475 -0.79146802 0 0 0 5.6051939e-45
-0.0043299999 -0.143692 -0.79144067 0 0 0 5.6051939e-45
0.002166 -0.14441501 -0.79147071 0 0 0 5.6051939e-45
0.01352825 -0.14272875 -0.79108703 0 0 0 5.6051939e-45
0.025123799 -0.1440578 -0.79187357 0 0 0 5.6051939e-45
0.031420499 -0.144568 -0.7923075 0 0 0 5.6051939e-45
0.043658003 -0.14406101 -0.79149884 0 0 0 5.6051939e-45
0.054629751 -0.144325 -0.79097652 0 0 0 5.6051939e-45
0.064528801 -0.14272681 -0.79165906 0 0 0 5.6051939e-45
0.073048249 -0.14384149 -0.79127699 0 0 0 5.6051939e-45
0.083993599 -0.1439812 -0.79145038 0 0 0 5.6051939e-45
0.092501007 -0.14390101 -0.79258507 0 0 0 5.6051939e-45
0.10203987 -0.14337051 -0.79164863 0 0 0 5.6051939e-45
0.112647 -0.14343551 -0.79200602 0 0 0 5.6051939e-45
0.12167259 -0.1440008 -0.79155624 0 0 0 5.6051939e-45
0.13284168 -0.14376999 -0.79186702 0 0 0 5.6051939e-45
0.1419522 -0.1426342 -0.79114944 0 0 0 5.6051939e-45
0.1542785 -0.14391075 -0.79165578 0 0 0 5.6051939e-45
0.1613142 -0.143822 -0.79057878 0 0 0 5.6051939e-45
0.169925 -0.1438655 -0.79140723 0 0 0 5.6051939e-45
0.182052 -0.14457966 -0.79237169 0 0 0 5.6051939e-45
0.19088757 -0.14385785 -0.79179275 0 0 0 5.6051939e-45
0.20078425 -0.14387575 -0.79146576 0 0 0 5.6051939e-45
0.20954439 -0.14397921 -0.79143959 0 0 0 5.6051939e-45
0.21777534 -0.14359801 -0.79092401 0 0 0 5.6051939e-45
0.22933267 -0.14360951 -0.79099351 0 0 0 5.6051939e-45
0.23883499 -0.14440566 -0.79141736 0 0 0 5.6051939e-45
0.2462728 -0.1430732 -0.7911998 0 0 0 5.6051939e-45
-0.24873701 -0.099064 -0.79078102 0 0 0 5.6051939e-45
-0.2248764 -0.101339 -0.79514223 0 0 0 5.6051939e-45
-0.223426 -0.099350996 -0.79306501 0 0 0 5.6051939e-45
0.085842505 -0.098443501 -0.79450148 0 0 0 5.6051939e-45
0.22508501 -0.10093525 -0.79702783 0 0 0 5.6051939e-45
-0.2470001 -0.092570499 -0.79424649 0 0 0 5.6051939e-45
-0.23911232 -0.092172951 -0.79433763 0 0 0 5.6051939e-45
-0.22907405 -0.092399903 -0.79439282 0 0 0 5.6051939e-45
0.086894497 -0.091927744 -0.79422951 0 0 0 5.6051939e-45
0.089507662 -0.092744671 -0.79815835 0 0 0 5.6051939e-45
0.22415951 -0.089924999 -0.79566848 0 0 0 5.6051939e-45
0.22867802 -0.093191668 -0.7941007 0 0 0 5.6051939e-45
0.23914976 -0.092645943 -0.79410434 0 0 0 5.6051939e-45
0.24688956 -0.093467779 -0.79394585 0 0 0 5.6051939e-45
-0.246013 -0.08623866 -0.79831499 0 0 0 5.6051939e-45
-0.23804833 -0.086252995 -0.79845595 0 0 0 5.6051939e-45
-0.23082334 -0.087000005 -0.79864693 0 0 0 5.6051939e-45
0.086801998 -0.086425997 -0.79338402 0 0 0 5.6051939e-45
0.089258254 -0.083456248 -0.79593372 0 0 0 5.6051939e-45
0.22784051 -0.086834505 -0.79712951 0 0 0 5.6051939e-45
0.23786449 -0.085823998 -0.79784048 0 0 0 5.6051939e-45
0.24662799 -0.086922497 -0.79793602 0 0 0 5.6051939e-45
0.091699883 -0.073228553 -0.79609609 0 0 0 5.6051939e-45
0.093236662 -0.062844999 -0.79579312 0 0 0 5.6051939e-45
0.094311997 -0.053748857 -0.79395783 0 0 0 5.6051939e-45
0.09505225 -0.0448885 -0.79431325 0 0 0 5.6051939e-45
0.096334338 -0.033773337 -0.79147285 0 0 0 5.6051939e-45
0.099407203 -0.035158001 -0.79699862 0 0 0 5.6051939e-45
0.047294751 -0.023811251 -0.79499149 0 0 0 5.6051939e-45
0.053730126 -0.024855498 -0.79371697 0 0 0 5.6051939e-45
0.0635285 -0.024597 -0.7940594 0 0 0 5.6051939e-45
0.073240437 -0.024717715 -0.7942661 0 0 0 5.6051939e-45
0.082819 -0.024870001 -0.79420811 0 0 0 5.6051939e-45
0.093769148 -0.025038 -0.79465908 0 0 0 5.6051939e-45
0.099774398 -0.026460201 -0.79645002 0 0 0 5.6051939e-45
-0.277845 -0.22556999 -0.781398 0 0 0 5.6051939e-45
-0.040568002 -0.22534899 -0.78063202 0 0 0 5.6051939e-45
-0.02775 -0.225289 -0.78042197 0 0 0 5.6051939e-45
0.31587401 -0.225255 -0.78030598 0 0 0 5.6051939e-45
-0.54745704 -0.21817218 -0.78287166 0 0 0 5.6051939e-45
-0.54087991 -0.21839666 -0.78264987 0 0 0 5.6051939e-45
-0.53155285 -0.21789233 -0.78236908 0 0 0 5.6051939e-45
-0.52172607 -0.21799622 -0.78335565 0 0 0 5.6051939e-45
-0.51246983 -0.217476 -0.78394669 0 0 0 5.6051939e-45
-0.50216937 -0.21757914 -0.78376794 0 0 0 5.6051939e-45
-0.49251524 -0.21676187 -0.78418654 0 0 0 5.6051939e-45
-0.48269102 -0.21729188 -0.78224981 0 0 0 5.6051939e-45
-0.47294998 -0.21770237 -0.78318077 0 0 0 5.6051939e-45
-0.46330708 -0.21656609 -0.78348517 0 0 0 5.6051939e-45
-0.45393258 -0.21813691 -0.78310007 0 0 0 5.6051939e-45
-0.44332215 -0.21769744 -0.78371882 0 0 0 5.6051939e-45
-0.43390816 -0.21804781 -0.78217852 0 0 0 5.6051939e-45
-0.42428011 -0.2172672 -0.78370744 0 0 0 5.6051939e-45
-0.4148688 -0.21760462 -0.78278404 0 0 0 5.6051939e-45
-0.40404126 -0.21784735 -0.78425801 0 0 0 5.6051939e-45
-0.39434618 -0.21789177 -0.78323627 0 0 0 5.6051939e-45
-0.38518053 -0.21776508 -0.78336614 0 0 0 5.6051939e-45
-0.37599993 -0.21805285 -0.78381956 0 0 0 5.6051939e-45
-0.36541715 -0.21723422 -0.78259122 0 0 0 5.6051939e-45
-0.35542315 -0.21806361 -0.782076 0 0 0 5.6051939e-45
-0.34690994 -0.21808757 -0.78292245 0 0 0 5.6051939e-45
-0.33647302 -0.21805289 -0.78355002 0 0 0 5.6051939e-45
-0.32623386 -0.21715966 -0.78332144 0 0 0 5.6051939e-45
-0.31737044 -0.21822755 -0.78287971 0 0 0 5.6051939e-45
-0.30753934 -0.21824734 -0.78263682 0 0 0 5.6051939e-45
-0.29800302 -0.21808344 -0.78382927 0 0 0 5.6051939e-45
-0.28789198 -0.21739742 -0.78315258 0 0 0 5.6051939e-45
-0.27752092 -0.217815 -0.78349859 0 0 0 5.6051939e-45
-0.2690787 -0.21849976 -0.78364319 0 0 0 5.6051939e-45
-0.25807911 -0.21774285 -0.78328222 0 0 0 5.6051939e-45
-0.24915627 -0.21738243 -0.78402579 0 0 0 5.6051939e-45
-0.23875268 -0.21798742 -0.78331572 0 0 0 5.6051939e-45
-0.22893664 -0.21789329 -0.78276813 0 0 0 5.6051939e-45
-0.22018127 -0.21780683 -0.78218818 0 0 0 5.6051939e-45
-0.21013071 -0.2181465 -0.78293532 0 0 0 5.6051939e-45
-0.20028231 -0.21741982 -0.78367907 0 0 0 5.6051939e-45
-0.19073708 -0.21731192 -0.78426081 0 0 0 5.6051939e-45
-0.1804325 -0.21741669 -0.78346568 0 0 0 5.6051939e-45
-0.17097639 -0.21795592 -0.78287834 0 0 0 5.6051939e-45
-0.16045475 -0.21686274 -0.783912 0 0 0 5.6051939e-45
-0.1512315 -0.218229 -0.78242832 0 0 0 5.6051939e-45
-0.14194375 -0.21786816 -0.78432137 0 0 0 5.6051939e-45
-0.13184777 -0.21781224 -0.78235441 0 0 0 5.6051939e-45
-0.12171874 -0.21706602 -0.78349495 0 0 0 5.6051939e-45
-0.11233374 -0.21747299 -0.78354436 0 0 0 5.6051939e-45
-0.10240661 -0.2180253 -0.78253388 0 0 0 5.6051939e-45
-0.092122249 -0.21757475 -0.78327048 0 0 0 5.6051939e-45
-0.08269617 -0.21802759 -0.78361559 0 0 0 5.6051939e-45
-0.073418498 -0.21762557 -0.78290147 0 0 0 5.6051939e-45
-0.063157812 -0.21848251 -0.78271294 0 0 0 5.6051939e-45
-0.054120801 -0.21810606 -0.78313416 0 0 0 5.6051939e-45
-0.044550534 -0.21782976 -0.78419811 0 0 0 5.6051939e-45
-0.034259748 -0.217472 -0.78290755 0 0 0 5.6051939e-45
-0.024619834 -0.21777476 -0.78271288 0 0 0 5.6051939e-45
-0.0151755 -0.21737708 -0.78319472 0 0 0 5.6051939e-45
-0.0050678183 -0.21695445 -0.78383714 0 0 0 5.6051939e-45
0.0039550001 -0.21768515 -0.78308415 0 0 0 5.6051939e-45
0.015528251 -0.21735533 -0.78312033 0 0 0 5.6051939e-45
0.024421101 -0.21673489 -0.78331625 0 0 0 5.6051939e-45
0.033718664 -0.217528 -0.78361565 0 0 0 5.6051939e-45
0.043724999 -0.21785216 -0.78298211 0 0 0 5.6051939e-45
0.052994996 -0.21727581 -0.78282952 0 0 0 5.6051939e-45
0.0634735 -0.21786194 -0.78336042 0 0 0 5.6051939e-45
0.072668292 -0.21794072 -0.78277767 0 0 0 5.6051939e-45
0.083189934 -0.21780314 -0.78256506 0 0 0 5.6051939e-45
0.092529446 -0.21742073 -0.78341424 0 0 0 5.6051939e-45
0.10199045 -0.21791406 -0.78401172 0 0 0 5.6051939e-45
0.11204823 -0.21803673 -0.78316265 0 0 0 5.6051939e-45
0.12145565 -0.21778212 -0.78360355 0 0 0 5.6051939e-45
0.13164456 -0.21870348 -0.78350437 0 0 0 5.6051939e-45
0.14117734 -0.21682011 -0.78363758 0 0 0 5.6051939e-45
0.1517169 -0.21778484 -0.78402251 0 0 0 5.6051939e-45
0.16006437 -0.21790245 -0.78267986 0 0 0 5.6051939e-45
0.17107257 -0.21820915 -0.78392011 0 0 0 5.6051939e-45
0.18013893 -0.21704958 -0.78342938 0 0 0 5.6051939e-45
0.1905757 -0.21762516 -0.78286469 0 0 0 5.6051939e-45
0.19905101 -0.21756583 -0.78323346 0 0 0 5.6051939e-45
0.21010299 -0.21693386 -0.78433704 0 0 0 5.6051939e-45
0.21966864 -0.2168832 -0.78298157 0 0 0 5.6051939e-45
0.2296017 -0.21678886 -0.78339285 0 0 0 5.6051939e-45
0.23948094 -0.21741875 -0.78325874 0 0 0 5.6051939e-45
0.24890645 -0.21766677 -0.78305149 0 0 0 5.6051939e-45
0.25816 -0.21713872 -0.78239799 0 0 0 5.6051939e-45
0.26839167 -0.21784776 -0.78307754 0 0 0 5.6051939e-45
0.27709609 -0.21821374 -0.78250122 0 0 0 5.6051939e-45
0.28746238 -0.21795952 -0.7832188 0 0 0 5.6051939e-45
0.29736432 -0.21779254 -0.78295249 0 0 0 5.6051939e-45
0.30792856 -0.21808307 -0.78253824 0 0 0 5.6051939e-45
0.31727502 -0.21811356 -0.78301591 0 0 0 5.6051939e-45
0.32703283 -0.21839592 -0.7829414 0 0 0 5.6051939e-45
0.33562276 -0.21785885 -0.78310752 0 0 0 5.6051939e-45
0.345947 -0.21769759 -0.78316534 0 0 0 5.6051939e-45
0.35551623 -0.21785933 -0.78300697 0 0 0 5.6051939e-45
0.36472365 -0.21692801 -0.78285509 0 0 0 5.6051939e-45
0.37576011 -0.21838172 -0.78343624 0 0 0 5.6051939e-45
0.38498807 -0.21799232 -0.78333801 0 0 0 5.6051939e-45
0.39531559 -0.21770446 -0.78254932 0 0 0 5.6051939e-45
0.40402544 -0.21783741 -0.78294522 0 0 0 5.6051939e-45
0.41455293 -0.21863067 -0.78259832 0 0 0 5.6051939e-45
0.42405394 -0.21731634 -0.78324848 0 0 0 5.6051939e-45
0.43353927 -0.21795933 -0.78312701 0 0 0 5.6051939e-45
0.44350347 -0.21779931 -0.78371334 0 0 0 5.6051939e-45
0.45274657 -0.21701685 -0.7836327 0 0 0 5.6051939e-45
